25.548 -21.4611 37.9784
-33.2702 9.38711 70.1313
-36.6514 -19.6294 41.173
-29.4229 29.3828 76.2302
-33.0592 2.2539 60.8059
14.7599 -2.4078 52.1251
-5.119 -29.1252 27.1192
-4.47671 -30.3927 26.6046
-41.3431 -11.9696 43.2455
-21.5517 -0.309641 66.9747
10.309 -14.1758 1.17406
10.6482 12.4304 0.246395
10.1024 12.5871 0.246746
10.4715 12.6121 0.32254
-37.2671 -7.37571 22.8615
-30.5434 -1.41023 0.616337
-30.6329 -1.47258 0.308991
-15.3397 -22.8472 6.83296
7.11579 -30.8842 12.5118
3.68908 17.3097 8.84492
11.5274 16.9308 13.4026
11.3273 16.8821 12.5346
2.14469 -27.5619 6.47562
13.3873 16.4239 14.2248
-42.5643 -13.3255 45.7111
-42.3649 -13.7311 45.4118
-38.2509 -2.72774 37.3252
-38.0582 -2.46113 37.7998
12.6661 -30.3941 11.4599
-32.466 -21.7558 39.959
-29.9102 22.6088 63.2474
-25.9319 3.48343 59.025
-8.35243 16.0252 25.6575
11.3585 -24.5675 38.0714
-22.9188 1.48353 58.1153
-10.9843 9.92843 23.1595
-5.60253 -24.7857 36.4175
-21.8647 -18.504 56.3309
-16.9408 -5.66009 67.3491
-32.6616 5.27509 64.0761
-29.148 31.2647 79.9445
15.9127 11.892 34.6701
-26.0186 31.0954 79.0701
-25.8291 31.2654 78.9056
-24.0047 4.29161 0.0450974
-24.5149 4.02616 0.072052
-38.4613 -14.495 36.8092
-39.0827 -13.247 36.5265
-8.22668 3.88607 46.976
-25.191 20.0882 70.6029
12.2945 -29.5132 33.5921
-28.5348 -6.90951 0.0951271
26.5743 -2.23329 45.3
26.8162 -1.58619 44.896
-25.5998 -21.5639 41.6136
30.787 -6.92818 40.4615
1.37649 20.8817 24.8922
34.7097 -11.9214 25.0913
-31.2612 6.68505 60.5646
0.0937862 11.7281 83.4867
-35.3366 -27.9042 45.0018
-41.9449 -6.07531 46.4759
-42.107 -6.25254 47.3563
17.2491 15.4403 14.3847
17.5592 15.1749 13.8433
8.30127 -28.5709 35.0904
7.56688 -28.9656 34.836
18.7988 -28.0189 12.0942
-26.3169 18.6842 72.6666
-18.1122 -8.41101 57.7839
15.279 -27.0119 36.4362
7.13964 14.8685 5.16105
-2.42812 14.8193 0.195034
-0.747854 14.4891 0.852261
32.4875 -16.4771 30.9017
28.805 -22.5389 30.8598
-30.8771 -4.64882 0.209221
-19.4708 -21.9555 18.3107
-22.0131 -0.374236 9.79057
-25.2565 8.88557 21.8786
-34.9801 2.21469 47.7683
-11.8197 10.2901 39.2468
21.3886 0.973328 0.582416
21.2871 0.780596 0.49654
15.0125 -19.5732 0.186909
5.7018 -27.8276 0.225922
4.61332 6.91468 46.1795
-8.43765 9.55656 7.42575
3.12335 15.0598 80.6248
-33.6883 25.5069 76.3526
-25.8331 -25.4763 31.563
-19.1981 -21.1716 17.0223
-6.18424 -30.5063 0.211452
-6.67999 -30.2511 0.178493
-7.54791 1.61366 77.5773
-40.1558 -17.1021 56.5738
-17.8859 -5.46172 59.9005
-39.4355 -12.5448 28.4726
-33.6972 -26.2427 59.1545
-33.6884 -26.8546 58.415
12.7939 16.0928 10.5357
-28.2387 26.5095 65.0825
23.8948 3.31656 44.2605
-6.49805 -30.1301 0.0449486
-6.49757 -30.2029 0.0666771
-7.66764 -29.4293 0.0308456
-11.1601 -24.1529 21.583
-10.6709 -24.1185 22.0042
5.3827 9.31479 0.0556603
-30.0032 -5.98929 0.173889
-19.586 -18.2193 8.11585
-10.3972 7.47332 0.422733
-8.24321 -1.05236 66.1939
-26.186 5.08024 59.7302
-8.76718 14.8679 26.2348
7.11968 -27.9489 35.328
-2.53946 19.9072 28.4696
-26.0322 4.37637 59.5605
-15.2223 -23.0579 6.42788
-8.57293 -14.849 47.716
-9.4818 -14.21 48.4557
-18.8883 -17.3561 53.6514
36.3528 1.43556 13.6425
-6.12312 -30.4739 0.151867
3.15271 8.01048 71.2823
-4.70857 4.40359 80.8656
27.0936 0.858069 2.52825
26.9531 1.22844 2.98326
35.001 -3.70553 21.1437
-23.7804 -19.6237 58.0124
-24.1823 -19.8844 57.4996
-40.0213 -10.1251 29.0693
-40.2836 -9.29308 29.7583
12.1699 -26.1245 0.0861816
12.0243 -26.2285 0.183731
-23.1787 -4.53379 67.0981
-27.9404 23.3847 63.9924
-24.1749 -1.90757 65.5243
-24.2666 -2.28502 65.7891
-29.8472 -28.1479 42.6997
16.0205 16.3554 22.1992
16.1093 16.2971 22.0952
-18.1409 -7.14561 63.9598
-2.16105 5.20924 68.1695
-16.6006 6.05096 2.42762
-15.5416 -2.9992 0.0682793
-36.3026 -1.99543 22.1124
0.383912 -30.3493 15.6454
0.421816 -30.2095 14.7274
-27.7627 -24.7662 58.4787
-36.6822 -22.046 61.2678
22.7876 -3.96762 48.6937
-6.4944 -25.6111 23.5893
-4.97157 7.2384 44.3711
-6.28089 -10.6229 49.2387
-33.4706 -27.0573 58.193
30.8982 -18.6492 7.43682
-21.3575 -16.5093 6.39933
-16.725 -21.462 11.5466
-16.3517 -21.7944 11.4475
-25.4648 1.76941 63.0759
-25.2864 1.49188 62.6336
-6.74639 -25.4734 24.1682
-9.52287 5.38903 11.8904
-39.5766 -5.82921 36.5265
-34.1413 -13.1041 19.7505
20.5847 -28.0416 17.7578
20.5076 -28.291 18.4574
-25.6375 -22.7605 53.8118
-30.8151 -26.2074 41.5689
40.8745 -6.08452 8.10955
-28.452 -28.0901 43.3814
-5.2452 16.2905 14.4238
-5.67652 15.6427 14.0519
-8.59873 13.6617 28.019
-9.02644 -24.95 6.31863
24.0273 -4.82507 47.9542
-32.4779 12.5774 67.387
-31.4588 21.202 71.1693
-31.1178 23.0001 72.1465
-28.083 13.4963 61.3364
-31.8962 18.5861 75.4344
-10.5322 0.186682 0.698273
-36.0479 0.437275 55.2793
-41.0788 -25.078 49.2985
40.5392 -15.2175 15.5068
-3.1084 8.48461 1.25099
-1.26239 -28.6744 15.0235
-42.0095 -24.16 47.2321
-42.0226 -24.0643 46.8592
8.55614 17.8881 31.5811
8.59051 -30.975 9.07275
-3.61178 6.1876 75.0717
-23.1618 -19.1278 58.9569
-23.2701 -19.1857 58.4322
13.2779 -30.6137 31.1285
13.1304 -31.0338 30.4653
4.28148 9.99912 42.3717
-31.3662 0.512648 67.0502
23.8017 5.57085 41.8467
23.5743 5.80352 41.6738
23.6224 5.48156 42.126
18.5465 9.0446 0.202095
9.55952 -22.0838 0.293137
10.869 -21.3417 0.45641
-3.62508 -26.8173 0.0312653
-2.26118 12.2613 36.6965
-1.67552 11.8611 37.7954
-0.895464 12.2114 36.7021
-6.25589 -15.8111 0.99387
-37.2582 -1.24285 38.7412
-37.35 -2.00173 39.4239
30.8843 5.51658 19.6395
3.83386 7.21701 45.7436
-28.8067 17.1763 62.1003
27.8498 2.48148 5.56947
-11.0037 6.87673 6.90224
34.913 2.43723 9.88561
-25.6114 7.01906 41.8452
-4.81578 15.0249 0.0661926
-30.3717 -23.9436 29.6451
-13.2216 6.38683 46.2648
-13.382 -2.40374 73.2672
13.3084 18.0818 21.479
-26.5288 29.568 78.583
-20.5777 -11.0301 11.6038
-1.37428 17.3382 10.9183
-39.643 -11.7944 41.942
-30.6579 29.7872 80.2091
-7.20816 10.5792 7.9445
-9.14546 -0.347774 49.4642
-10.3404 7.20641 71.2865
-10.5322 11.4409 24.9384
27.9169 8.67285 19.6298
20.8726 -22.9308 39.7318
-32.3569 -29.9207 45.1362
28.0908 8.44631 19.8494
-37.3872 1.10008 47.6149
-24.8358 -21.8286 43.5357
-24.8471 -21.6472 43.3092
-0.0377028 8.82261 71.0763
-21.0293 2.87253 5.30761
-25.9918 5.00346 59.9408
-25.9663 4.6362 59.7686
4.67042 19.3123 18.4332
-15.8473 -2.2925 72.8488
-30.7023 -3.21435 0.672684
37.8672 1.32375 12.9086
-20.7768 11.2645 32.2743
-17.1698 5.58719 12.5836
24.1021 10.6419 9.25914
-38.1089 -17.7279 63.1803
-14.3163 6.66742 14.9144
8.58233 -9.70733 0.321297
-3.05137 5.85749 81.8584
-3.04416 6.02698 82.0785
-21.0793 -24.3073 21.7983
-17.9223 6.37389 16.3394
-29.8217 30.5295 80.2308
33.2477 -18.8176 8.0705
28.1086 -23.612 24.4376
-31.5693 26.2485 75.6163
-31.2562 26.2731 75.3092
-24.4803 2.02813 58.6772
-24.5624 2.14687 58.5252
-40.6165 -13.4662 55.7205
28.7339 -21.5922 13.1334
20.9258 -28.849 20.9653
21.7007 -28.1669 20.6853
39.6824 -13.9388 8.65224
38.8829 -13.7774 7.55389
-26.7695 20.6109 73.6741
-30.3405 16.81 62.0656
-16.6727 7.19403 0.169449
-14.0228 -24.2843 4.02111
-22.9597 -25.3486 4.22586
37.4183 -14.0183 18.9794
25.2102 11.0219 26.8961
-10.3257 0.342379 70.7714
-10.7915 -0.0727046 70.4879
-31.3507 25.2749 74.4503
-31.1564 25.2984 74.2112
13.5011 11.0943 35.87
30.8029 5.16439 22.8903
13.6273 -20.9516 46.8152
27.7417 8.86631 19.3866
27.3661 9.28578 19.7139
3.67566 10.9592 72.3274
12.7149 -29.3939 7.53532
-20.7913 2.17776 50.9621
6.55935 -25.0275 40.0043
-26.065 -7.55468 12.7708
31.4829 -19.1458 22.6836
-10.1224 12.2818 5.8963
7.58962 -31.2826 32.5515
-20.2859 -26.0083 27.9579
-1.66956 -15.6377 48.5738
-2.58969 -16.5624 47.8203
-4.9221 4.19482 80.735
1.79628 -23.8854 41.5637
-25.1804 -24.4605 2.88292
-25.558 -24.3602 2.03678
22.8156 12.1936 29.4598
-20.8936 -17.9048 7.00955
-25.2038 -21.6289 59.2151
-25.0842 -21.4645 58.8692
-7.84734 2.91072 47.6145
-8.2756 2.88178 47.6492
-7.19401 2.45248 47.8502
9.70969 5.13599 1.6582
6.9843 -25.3091 36.1882
5.855 -25.4147 36.2656
-33.1081 -14.1952 66.1554
-8.6199 14.1004 20.5784
-9.57747 5.00578 8.34475
-4.90816 -19.9707 43.5866
-2.25859 -15.8829 1.22403
-9.83796 4.93326 8.59254
-34.092 12.8083 69.3266
-34.0417 12.105 69.2337
-27.8138 1.41833 2.566
-38.5808 -1.54072 33.183
21.9442 13.5215 11.5213
30.724 -13.5564 39.3502
30.3828 -14.1514 39.7268
-36.5708 -0.261709 39.1427
-8.61594 7.0966 13.069
-17.5194 -25.8833 28.8621
32.8272 3.22513 29.1555
32.6953 3.5845 28.7106
24.28 7.94172 6.2565
23.7852 8.1047 5.9339
-4.45062 6.6309 81.7112
-10.4622 3.95132 77.8136
14.1706 15.9068 9.97757
38.7952 -16.8103 12.1374
-21.6937 -25.7026 25.4479
-36.1322 -13.0156 22.3656
4.39281 -24.7719 40.5357
4.80463 -24.7884 40.6312
-2.13451 -29.7942 19.1932
-41.3791 -9.86849 58.4535
-14.6016 -22.8327 7.17616
-31.0818 -2.91011 66.1921
5.30481 -31.863 16.6999
-39.7965 -2.83592 53.9698
-39.3983 -2.21336 53.59
2.5459 7.96959 70.6295
-22.4806 -21.8175 44.7561
-33.7417 1.35057 60.5094
-28.1671 0.0182545 2.84642
3.97186 11.2537 40.4758
19.8001 12.011 33.0595
6.07437 -25.3411 36.3837
13.6766 -15.2139 0.183109
-37.7824 -28.5017 51.4223
-32.776 6.78829 28.0683
-11.4333 12.2706 29.0757
-26.5446 0.309216 64.8403
20.9471 -26.2497 35.3204
-35.6399 -29.8291 49.7075
40.1554 -14.0855 18.1009
6.45296 -25.2771 36.4788
-24.9119 15.9253 66.6604
28.5472 -22.9683 23
29.3832 -22.0245 21.7584
-37.634 -3.8945 61.5458
-37.8179 -4.25925 60.8543
-19.6224 -8.57742 10.849
8.01624 -13.4575 52.1613
6.62336 -13.0458 52.1207
-3.03326 20.6193 23.278
-25.7696 -15.6238 66.0854
-25.0808 18.4436 67.3345
-14.607 13.2824 0.882946
-30.4159 23.5294 64.9495
38.0377 0.659486 9.5906
-20.9913 -20.3872 43.1964
8.35344 4.14074 48.8228
27.0537 -3.79212 0.0829048
-6.513 -21.19 11.7353
14.0443 16.027 13.4927
-10.5385 -1.79406 50.3844
-7.72193 -3.25393 0.768757
-35.5809 0.902782 55.2604
11.8216 -26.3774 35.7878
11.7972 -25.954 36.1758
-15.355 -2.74192 61.2566
-8.47949 -20.4642 0.307186
22.8547 -22.7512 7.45604
6.0369 6.8877 1.4683
6.32954 6.65881 1.52708
-23.0844 4.33432 47.0716
-25.7556 -21.6775 42.2283
-33.3024 0.0649262 65.1619
-1.18736 -27.5738 6.9721
-24.2289 -21.0699 59.7492
-24.8685 -21.4068 59.3264
-41.2791 -19.6314 51.7539
22.0676 -25.5123 35.4639
-40.9377 -9.00474 42.483
0.230981 -29.5138 0.237095
0.104062 -29.5671 0.22197
6.50868 18.68 14.4667
5.98678 18.7659 14.5874
-17.0439 -25.228 30.7269
4.681 10.3161 42.1662
-17.7404 -2.61959 59.6876
12.1196 12.8963 4.10167
-5.26709 -20.2816 1.40666
-27.5049 6.51731 59.6491
-4.40199 -27.0172 7.44431
12.8791 3.21092 1.12163
11.3082 -31.8554 13.6092
10.6954 -31.8002 13.365
16.7742 12.4707 3.676
16.1248 12.6766 3.86057
-27.5696 -17.5047 0.241398
-30.8647 16.2746 62.1963
-32.0057 1.91457 19.3699
-33.7427 12.4752 68.4527
11.1747 -26.863 35.4297
-15.7942 -4.32665 69.712
-15.9334 -4.24878 70.007
-8.64202 -21.2436 41.3625
-14.2953 11.1261 34.74
-21.5606 -26.9111 1.84312
24.3342 -16.4673 1.36777
36.3611 -9.29746 20.5824
-33.6937 24.178 77.5029
-15.8675 -4.90121 62.3574
17.2268 15.9564 22.6296
5.95413 4.2337 49.2395
20.8068 -6.19346 50.1746
18.2054 15.4411 24.8622
-23.2786 -24.3505 21.8981
0.0872625 20.9626 25.3002
35.1029 1.25748 6.74599
-5.75194 -22.9498 17.5741
10.4427 -1.42785 0.256142
-34.4534 -12.7794 20.0206
-41.4532 -11.4087 60.5053
-16.5453 5.99607 2.61497
-4.16102 -27.7734 7.10091
4.65714 -28.1621 1.07187
-27.6536 -9.05321 0.280895
-20.6855 -11.4871 4.15522
-38.5703 -5.14658 58.68
-17.5649 1.23597 62.8643
30.2093 -20.899 27.5757
13.2867 -32.1566 21.2385
0.908267 13.8251 34.2657
-25.7122 -19.6899 4.8571
-9.57355 -22.5595 13.1822
-4.45835 -29.6922 5.04286
-41.1221 -10.2794 63.0369
38.7203 -11.8731 20.1767
-29.3956 23.3897 63.5537
-19.5323 -25.2211 32.5252
-19.2491 -25.2785 32.7572
-19.573 -25.1306 33.1241
17.1269 15.9395 21.9157
-29.1296 18.876 62.3718
-9.96381 15.6359 2.25076
-15.9264 1.89535 63.3092
24.5332 10.2022 8.6599
24.3887 10.387 8.80272
-8.67733 11.1094 18.0824
11.2099 16.0956 32.8811
25.8277 10.5306 25.7763
26.0614 10.3719 26.1143
-18.3979 -2.67545 58.7235
-26.103 10.449 69.5934
-25.8135 9.88393 68.8762
4.56819 18.9472 15.208
-26.2641 0.431881 64.5626
-13.6038 4.68648 48.495
-13.8715 -3.48984 67.395
-26.3626 -9.76891 0.18504
-26.3437 -9.56198 0.146755
-9.86907 14.8018 4.17104
10.8027 11.1844 37.8692
29.6243 5.60501 13.7044
-22.0935 -0.00640363 63.7524
-22.2827 -0.213518 64.4077
-41.9457 -20.096 44.9461
-41.6411 -18.9191 44.6009
-39.2953 -6.56066 58.7094
-0.724589 20.707 20.5415
42.7176 -7.7081 17.7289
42.7656 -7.22729 17.4258
9.07526 -33.2089 22.2453
26.4599 9.51056 31.3714
2.25555 15.1134 79.4051
37.0662 -15.3079 6.95159
20.1867 1.58827 0.141449
-21.7411 -5.00227 9.57232
-34.5754 -1.86021 64.5184
14.2152 -14.8941 0.0998383
-0.398214 -28.1721 9.68122
-30.232 -30.001 44.8086
-30.4118 -30.1977 45.2103
15.3712 -22.0808 43.7241
-19.6018 0.81027 69.2239
-10.7929 -0.514635 69.7265
-34.5302 1.5708 57.6745
-30.4254 23.5658 64.7605
-3.22635 -30.7879 2.85391
-32.1407 7.29479 70.2303
-6.80146 -20.8082 1.16313
-27.4172 -7.22457 3.06734
-27.2857 -7.84606 2.64986
-24.9787 -11.8935 13.2117
-25.3824 -12.4506 13.5011
-6.80598 -12.3266 0.445236
-19.6833 -7.9589 8.56107
19.9328 -29.767 23.3943
-38.9924 -3.65894 42.5449
34.2078 -0.968629 27.6574
8.76663 -9.54003 0.233513
-25.8942 -20.6489 0.133961
-26.1594 -20.2117 0.152153
-25.3089 -18.9677 0.0771904
1.33869 13.5625 82.5985
-39.667 -6.59365 36.7575
-14.0114 -3.27034 67.7979
-17.0717 -25.8525 27.9647
-37.9731 -25.2362 56.9424
14.9482 0.736845 50.8484
-40.6727 -7.72619 61.2706
-16.5005 7.81084 0.140656
-5.05608 -18.3635 45.5395
-5.12139 -18.5513 45.2669
-29.65 -24.0812 27.615
0.035169 3.64926 69.7125
-0.108461 3.57832 69.8216
-24.7902 -5.36331 66.274
-3.1684 5.67063 73.2933
22.7022 -25.0742 10.7699
-30.1984 13.7659 61.6222
22.7456 -27.5044 27.1107
23.2089 -27.3086 26.6056
3.13107 13.7537 2.51858
-38.1115 -16.479 32.8866
34.1019 -18.7102 8.55925
-14.229 12.8342 1.80916
-14.1963 13.1829 1.62902
-14.4212 13.0752 1.37665
25.9722 -23.7275 13.7129
-7.29058 -22.2282 8.59109
-22.1786 -22.2656 45.8047
-32.8488 -20.7859 39.2006
-26.6744 -22.0301 41.8587
15.0256 -22.8977 41.0387
-39.7576 -4.23634 29.0029
-12.5441 -23.8606 3.96528
0.636729 11.7932 37.8763
1.08214 12.075 37.2732
5.36042 -27.4447 4.66365
4.71357 -27.7266 4.48912
-34.8081 -27.5803 43.8746
-32.0371 3.2996 20.3589
-31.7511 2.99667 19.876
-7.23982 -21.0815 10.3427
-5.63476 -27.4364 29.1541
-25.4789 -24.8125 0.244671
-9.53357 -28.1957 1.47325
9.26928 -30.9487 9.34584
0.310134 3.90715 69.763
0.100355 3.67767 69.5523
-32.9287 6.66025 30.7191
16.5212 16.5887 18.9912
-29.791 3.54478 57.8788
30.1865 5.57764 15.5767
39.2667 -0.104997 14.5957
39.1701 0.327745 13.9148
14.2698 1.27096 50.7399
-3.75548 12.3412 36.6383
-14.9057 12.8175 0.181236
6.77917 -27.5459 0.366554
15.9621 16.1424 15.6956
-24.7903 32.0875 72.026
-24.6021 32.5327 73.014
20.127 6.0537 0.970734
5.08921 9.64545 0.0709457
5.48213 9.65604 0.0372581
-8.66617 5.46113 8.70526
-19.492 -14.1195 9.90394
-10.7685 -1.18828 74.0464
-10.2767 -0.735791 74.4244
-5.92825 -11.5899 0.839336
-8.45323 16.0229 22.3646
18.8667 15.5746 18.726
-17.7989 9.39621 40.8723
21.0343 -22.6097 40.2221
31.8392 -17.4174 14.7816
11.0821 -24.5254 38.3111
15.4753 11.6782 0.417259
19.1936 -10.415 50.939
19.848 -10.8355 50.5801
-7.4421 17.7966 22.4275
-38.8388 -2.34392 55.1941
-15.2043 0.919011 74.5575
-23.5539 4.01018 47.6145
4.39181 8.63481 0.220543
-12.0466 -1.78943 68.6955
-12.4287 -1.90828 68.7443
4.27923 -29.3448 34.3894
36.1124 -6.34343 20.4171
-17.0471 -21.7992 7.8615
-31.4059 -29.1566 43.4604
-7.04241 13.1406 14.9192
-18.7823 -18.874 9.65796
1.12644 6.2623 69.4157
11.2301 10.2146 42.5742
11.9531 10.2375 42.2847
11.3404 10.3037 42.2003
27.4573 9.34601 21.1974
-16.1316 9.21523 40.894
25.1181 10.6542 14.214
14.8911 -27.8931 34.2853
15.3562 7.91818 0.0102997
41.71 -11.4172 10.0854
41.9654 -11.7806 11.0434
-12.7557 3.23632 0.321114
22.7315 -27.4902 28.2914
23.236 -27.2396 28.1481
1.15066 5.08788 70.4137
-42.0359 -13.8071 52.595
-41.8616 -14.648 52.6641
-41.8594 -22.2282 49.8535
-30.8637 -21.6093 39.2281
-1.79845 -23.0168 1.24413
14.8772 -30.0572 11.1288
5.40456 -27.6527 6.1644
-32.9041 4.87278 62.7708
2.70206 14.1301 75.8399
-22.4085 -3.62058 8.38536
1.20069 -29.4597 11.9787
-31.9787 2.8041 42.7979
4.72763 -11.8224 1.23819
3.62118 -10.0936 1.18427
16.8407 -30.0603 16.099
-7.61978 -19.0639 1.11243
-32.3236 0.682167 66.5344
-12.4302 3.83939 0.412846
-25.3177 3.12278 60.8866
40.1261 -4.19461 19.371
23.3344 2.85829 3.54862
0.0725632 -24.4258 38.3856
-0.583596 -24.1757 39.303
-29.6718 -24.6968 60.7248
2.93942 19.3829 30.3987
2.59834 19.3423 30.6031
23.8177 -10.1395 0.0112457
24.9081 -18.5301 3.3057
-40.5399 -15.6922 43.9099
-7.64125 1.78121 78.4601
-7.63288 1.92032 78.6203
-9.00589 -28.647 2.4385
-27.2821 -2.47967 65.6884
-5.38139 8.76583 72.3179
30.1832 6.16247 16.8431
-21.2846 2.03112 53.332
33.6192 -0.554565 16.4205
-37.5478 -26.5575 55.7702
4.27499 14.3576 75.8514
4.28582 14.4247 76.0245
4.08974 14.4565 75.7467
-16.5163 -19.7413 43.3765
8.94941 -24.1709 42.4861
-29.5757 10.5579 60.5724
-10.5723 2.54469 48.9839
1.93264 -22.9097 1.19806
-3.30945 14.8233 7.63377
-31.6976 15.8906 63.1361
11.6124 7.16985 0.263557
11.8435 7.42346 0.0815735
-22.6084 -19.0444 15.8009
4.21967 -25.4333 36.3009
-39.7399 -6.29047 62.1322
-14.7921 2.60593 50.0454
-23.5369 -19.4354 58.3161
-32.8072 -27.5019 57.6087
9.91214 0.0406019 51.5449
3.33449 15.0183 34.1901
-7.79286 -20.9404 0.483295
-22.4083 -3.26721 11.4713
7.83586 9.93415 42.4129
-22.2651 -2.562 10.5359
-32.5336 2.55309 59.6531
14.3004 17.6785 21.6836
-17.2865 -4.14769 0.0636711
-10.3495 -25.0187 33.4529
-28.7227 -20.0816 19.1381
-16.8588 -16.3067 47.7845
-18.3687 -7.14787 59.8889
-2.05695 -27.9081 6.92582
-3.40385 6.40452 82.3025
-23.7914 -15.2524 4.3463
-22.7727 -14.9815 4.7807
30.3307 -17.2733 36.3676
32.4121 -18.888 8.80052
-28.285 13.1869 72.8259
8.52811 -6.52086 0.334381
-27.674 -18.053 0.638542
-27.6063 -18.187 0.898674
-3.47527 -31.4937 25.7821
-21.726 6.52346 45.1107
-39.94 -11.3967 29.0966
-39.8968 -10.9941 28.8453
-29.505 -6.46319 14.2438
-29.1202 -7.0281 13.9728
-20.3731 -1.74407 70.0328
18.5143 13.9561 8.70995
-18.2749 -20.5884 42.505
38.1744 -17.027 11.1302
-25.3265 32.3547 78.4354
-3.12173 -26.0907 33.3815
-2.98506 -26.1076 33.4267
-22.2398 -18.422 61.2747
-21.8137 -18.1254 60.5879
22.6778 12.5627 15.7309
-27.4932 -8.37591 0.156612
-7.17764 -7.86911 49.7192
-37.2951 -3.33048 62.8416
-37.6897 -3.9329 62.9873
-20.5599 -2.28743 69.8402
-29.0506 3.88213 45.4546
-16.6011 -0.610401 73.3079
21.2909 -23.8949 4.52713
-0.53751 -28.6592 11.6118
-21.1781 -12.2647 12.1333
17.6012 0.205521 0.0169373
-36.2763 -16.6012 40.6604
-36.5577 -16.4525 40.9325
11.6489 5.93744 1.22336
11.6778 6.13622 1.10799
14.073 -11.318 52.5581
-19.702 -8.04611 8.00618
-18.2911 2.16715 68.9568
-32.6316 -15.6412 65.9501
-38.5519 0.357967 48.0593
-41.7631 -24.6345 47.2199
26.4014 -15.0797 1.50286
42.7021 -9.25732 12.2803
-25.4331 19.1156 71.1853
-31.8673 22.9918 73.1406
-27.2495 -25.9711 52.3834
-8.43784 -22.8588 17.2004
-19.8008 -11.4094 60.607
31.7028 -11.2469 38.1263
32.0757 -11.1571 37.2325
15.9441 -30.4653 30.2541
11.8582 12.6241 3.39883
12.8011 3.84756 1.28891
12.6183 3.97428 1.36633
-12.2707 -2.03553 73.6199
6.72621 -6.56639 1.23969
-29.4492 21.4689 62.8772
-34.5731 1.47444 43.9279
6.2395 -19.448 48.833
-24.4925 32.8971 74.4544
33.3501 -16.3902 15.3734
15.3034 7.60156 45.479
-27.4548 -20.8736 0.475685
-3.04298 14.6172 32.9518
4.71227 -24.4941 41.2956
12.1991 -24.3992 38.2217
-18.8597 -0.0339515 71.2969
-8.94887 2.71476 65.0922
0.44422 -32.4518 24.2336
-0.0954677 -32.6421 24.5533
-7.85042 16.8115 25.4787
-19.4757 -21.1524 17.0133
27.6574 9.43757 29.1456
-15.9677 10.8706 0.34409
-41.6855 -7.92563 43.5978
-41.9328 -8.33944 43.9355
32.3829 1.46163 12.994
24.4615 -24.6137 12.3814
24.292 -24.9216 12.8095
-5.26179 5.68603 81.1406
-4.20575 -19.1369 45.1636
-41.7942 -12.1057 53.4316
-25.0353 -5.82102 66.2661
-31.7262 13.6957 65.2094
2.83371 -31.4587 32.0877
3.31916 -31.4598 32.1727
11.6213 -30.4951 9.60256
-40.5832 -8.6339 63.4024
-17.7046 -6.74678 64.6737
2.61069 20.2612 28.4298
-17.5523 -22.7267 39.5691
-18.0834 -22.4426 39.865
13.3394 -14.5108 0.135777
14.2083 -14.5278 0.0804214
-32.3434 -13.4362 66.3631
-17.6102 -25.3622 31.2525
-17.8849 -25.4274 31.2553
-25.9594 -15.3821 2.56061
-18.2523 -18.567 50.1598
-14.0753 -24.4695 26.7868
-2.99299 12.783 33.9913
-30.4907 24.4387 77.9029
-23.3971 -25.5372 3.49501
-7.09517 4.84177 46.3101
18.941 12.0621 5.02376
19.5513 10.1305 37.57
-28.9741 9.42872 71.6186
-12.9784 10.9861 35.9686
-12.1539 10.6097 37.212
-33.2257 -23.8606 61.6616
-20.3063 -8.02034 6.85581
3.06779 15.2143 77.6741
1.66034 -10.9021 51.4825
-15.9361 -3.95313 61.2752
-8.57938 -25.8577 5.77151
-30.7386 -21.6308 38.628
24.3462 1.57278 2.46094
-12.7498 -2.22605 73.4985
-30.2341 29.6026 80.3631
-21.6427 -6.28349 7.42432
-28.3795 4.30358 18.7604
-7.22558 14.8461 17.392
-5.12651 15.1635 0.537415
-25.6085 -21.5685 41.9778
-19.8365 -0.753215 58.4674
2.88136 -28.2448 0.0476074
2.5051 -28.6232 0.0370903
-15.3144 -23.354 17.4063
13.0151 2.91533 49.984
-25.3824 -25.6156 31.5877
0.161009 13.3014 81.8397
-35.0951 -29.9008 49.462
20.0873 3.73485 46.7921
-8.44051 6.34292 11.7622
0.437136 17.948 32.1011
-0.190193 9.83112 42.0877
-0.0369717 9.61061 42.4479
0.993496 13.1607 82.8485
-31.4399 24.6705 74.059
-12.6226 12.0648 29.8847
-28.3377 -2.96196 4.39906
0.611601 -28.5476 9.38857
-1.96648 6.63029 73.9697
2.07937 -28.9911 3.07983
-42.9524 -14.0029 47.668
-43.0343 -13.4068 47.6459
-1.20341 16.787 32.6418
24.2078 7.57767 6.04597
-16.028 -4.65657 69.0564
34.4454 -18.3867 8.01587
-6.08249 -21.5549 9.54096
11.1559 -30.5672 10.5545
-27.1992 -22.3281 39.309
11.8774 -30.2215 32.9469
12.6447 -29.6588 33.2588
11.9304 -29.9932 33.2391
-9.64094 -24.4049 26.2388
3.12156 -28.6465 2.9642
3.60552 -28.4699 1.425
-3.71502 -21.4715 1.52908
-3.7352 -24.795 8.48018
1.09205 -32.2961 23.3727
25.9353 -12.1374 0.114517
5.08446 16.2004 33.6043
-35.793 -28.1432 46.6758
-12.689 -24.5177 0.441517
-41.884 -6.87018 51.6917
-25.631 -15.1807 2.79141
-25.6012 -14.9374 2.48451
-17.8982 4.88375 11.4517
13.3769 2.35404 0.116478
5.11038 -32.8285 25.4575
-8.05384 9.48148 0.0793381
-0.145054 12.9023 34.4805
-35.3522 -27.6065 44.3749
-35.1142 -27.9444 44.7974
0.518668 10.741 73.0592
6.53327 -32.1393 17.988
-34.6461 -0.680274 63.5309
4.45573 10.5561 41.7928
12.2603 16.1365 11.0125
-25.4288 -21.5118 41.7641
-24.9176 -21.2702 42.2524
-36.2453 1.61282 47.8391
-41.0949 -12.0987 62.8823
-8.80701 -28.2814 3.59101
-8.73538 6.25702 1.31859
-28.1924 11.0278 71.8947
0.934207 20.8151 24.3423
-5.19591 3.72814 80.0955
17.7849 6.4548 0.0416184
-26.2012 26.1164 67.6911
-23.5456 -2.64595 6.61028
9.43188 -32.2847 14.9688
-28.4402 8.33968 32.5199
-3.77724 18.9118 29.8335
-19.0993 -1.36788 59.0943
-18.7948 -1.51953 59.3728
-16.8926 -22.9196 39.4017
-17.2034 -22.9841 39.1409
7.56674 7.83286 44.9786
-34.5617 -20.7318 27.7775
-14.2013 -4.44122 66.2634
-14.0358 -4.51295 66.0487
-13.8592 -4.3928 66.3707
4.5664 19.4009 18.6857
-13.5637 -9.97462 50.6419
4.38947 12.8839 0.27219
-21.4601 -13.8118 12.9274
6.21918 4.28204 49.1791
6.12359 3.86626 49.527
-8.73881 4.39109 46.6754
-32.2137 8.85612 71.0112
-22.8629 -3.40288 7.34991
-30.3295 -4.9454 66.3074
-26.9558 -27.0586 50.6925
5.37365 11.5355 40.4652
-38.43 -6.58169 24.6133
5.5832 11.6312 40.2132
4.89385 11.5799 40.1455
15.8662 16.1925 16.224
-39.9522 -3.28996 54.3374
15.1628 -26.0096 5.02336
-28.3753 17.0992 62.165
-2.16093 -26.8058 33.3276
-31.3514 18.4882 75.4835
7.49916 18.6647 30.5185
7.02701 18.5903 30.9249
7.38235 18.5131 30.9294
-14.0201 -3.39737 70.9182
-26.9815 -20.4828 2.69584
-27.0083 -20.033 2.71301
-29.6919 -21.6855 38.9076
-29.2933 -21.8256 38.7673
11.4919 4.01977 49.1555
11.1365 4.26176 48.9262
-38.4184 -5.36962 39.6344
-8.19453 2.50656 73.6461
26.8959 -23.5048 19.4618
-4.34992 -29.8784 28.2792
0.512922 -32.3155 28.4373
-29.9291 30.3434 78.5608
-26.7798 -15.1543 0.297974
27.02 5.95748 9.65664
8.44359 18.3148 18.2743
8.70849 18.1793 17.9569
-1.17202 -26.4317 34.0861
-34.7225 -22.1285 62.4371
-3.6021 3.70043 1.29158
1.31226 -24.8148 38.0158
-32.1745 -22.942 29.9142
33.0723 1.94851 24.5818
15.8207 11.3726 0.270596
15.7715 11.5449 0.402786
6.72064 0.796956 51.128
9.24218 -26.6178 4.71712
-21.2498 -23.0586 39.1537
-20.3398 -22.885 39.3412
-37.7851 -0.838731 54.4397
-18.1789 -6.19468 67.0221
28.7629 -22.2843 17.0908
-36.566 -16.2355 64.6738
6.84259 -20.7637 1.72654
6.34788 -30.0634 8.59818
-13.7995 14.3914 0.0238991
-13.9166 14.3353 0.033062
10.735 12.7566 1.86607
34.939 -3.1744 20.6596
35.0629 -3.45287 20.4189
27.8433 -24.0608 28.336
-13.1725 10.6398 25.5351
-29.6665 5.40836 20.4843
28.6448 -4.48108 0.294861
0.786512 19.4815 30.3908
-5.96987 -25.1983 21.6308
-5.72609 -26.0651 22.2746
-29.304 26.6279 65.4415
11.5998 -24.7665 37.6331
-38.9781 -14.8305 34.2826
-5.7064 -16.5014 46.698
-5.49423 -15.3717 47.3012
20.2203 14.0834 27.5915
-37.856 -4.67443 23.6866
-42.1085 -22.2805 45.2867
-29.2465 -30.0688 45.4931
-12.176 -23.289 12.6605
-25.5319 -23.2327 21.1234
34.4833 -5.54827 2.85721
2.02149 20.5288 27.9538
-28.773 5.54594 59.0998
-4.9848 17.5897 30.4089
-38.5817 -9.65827 24.8385
-21.4115 -21.2416 17.2615
-21.4477 -21.5572 17.6045
-17.4919 2.65871 65.9252
-16.4296 3.42993 66.6963
22.6527 -17.7271 46.3425
22.3801 -17.4165 46.8613
20.821 14.5167 16.6626
20.9268 -27.4673 13.7041
-21.789 11.2607 29.5282
32.2561 -2.04473 37.2051
-10.8268 -18.5547 44.7249
33.3893 1.17048 22.0346
-4.98264 -14.3456 47.9613
-29.8841 -22.0017 40.5205
-7.06657 -3.32312 1.02262
-6.30663 3.20864 79.9954
-22.0221 -0.114956 64.6314
-21.8152 -0.0500772 65.1092
-37.7086 -5.51094 64.3146
2.92844 -29.7447 10.6525
-33.1984 -30.3097 51.6782
-41.9288 -17.7495 46.8005
6.1934 -27.1157 5.29861
1.48939 12.5258 82.0837
-13.3947 -23.7999 35.5828
-9.59152 1.45819 48.9513
-8.54241 0.524275 48.8739
-40.114 -15.3486 43.4446
-40.4282 -15.0089 43.5987
14.9588 16.4774 15.3478
-12.1412 -3.65937 67.0299
-33.4971 14.0849 69.0697
-39.196 -23.5345 42.1029
-32.2418 -26.0207 59.6207
-33.4084 8.20642 65.9724
34.3995 -18.6464 8.71696
1.63287 13.6471 82.3482
-36.4138 -27.35 55.9765
33.9728 -14.548 25.0415
-0.20965 6.55541 45.592
0.677475 6.32154 45.928
-30.1759 3.9103 48.377
2.63535 9.49249 71.2707
-1.73729 14.8446 5.98703
11.7685 -13.577 0.0248222
11.1248 9.66053 43.702
11.1077 9.98559 43.1498
-28.1004 31.611 77.2674
39.9857 -0.439867 13.5063
39.6149 0.00766945 13.5438
-6.90106 -24.3785 36.6157
-18.5226 -9.32956 9.29853
-37.3192 1.21805 49.4999
23.5863 -18.4288 44.6876
-13.8598 -3.30124 67.5855
-18.6602 -26.0647 28.5767
-17.7111 4.73516 10.5659
-17.9104 4.66268 10.7003
-24.5544 1.75538 59.4329
-24.2642 1.52831 59.1716
-38.003 -1.25431 43.8555
-38.3144 -0.816115 45.0304
-37.9062 -0.905831 44.2177
4.00797 -32.3951 29.7265
-2.92227 5.06841 46.5863
-15.135 -9.48903 51.7116
-16.2486 -10.8169 53.3141
-12.9017 11.0108 26.4739
4.27856 14.5807 76.4492
-25.0831 -21.3681 42.4869
33.3022 0.490594 14.6856
-24.5121 32.0502 73.731
8.33389 -3.33021 1.15508
8.75696 -2.78725 1.07555
41.6337 -4.14879 10.964
-21.6775 -20.6108 43.1396
-21.6487 -20.6295 43.539
-3.36954 18.1448 15.2018
-3.78114 17.1089 13.3398
-14.4277 5.24204 7.20218
-21.0383 -26.9668 1.45525
-20.4839 -26.9372 1.51806
-33.8042 10.0821 68.9089
10.0572 6.95616 0.93874
-22.574 10.959 31.0673
-6.33049 18.685 26.9836
-6.41332 18.4196 27.416
-39.0474 -2.42299 29.7082
-6.08806 0.739068 66.1548
-5.9424 1.04242 66.1193
-36.4096 -28.2082 54.7009
-20.6028 -17.3345 14.3738
-24.5933 33.1841 74.7598
-18.353 0.896079 62.385
-28.727 -21.7533 40.2169
-29.2462 -21.701 40.1974
-7.2214 15.6299 0.574501
40.9453 -14.8588 14.6941
11.0756 -25.0737 37.0712
-7.58849 5.64961 45.7533
-28.6796 8.04269 70.8311
-27.9042 14.8194 73.1874
9.1979 -1.31223 52.0842
11.3477 -32.0866 22.4011
-27.2663 28.0022 66.4023
-27.4479 27.9514 66.2264
-24.9795 -25.0463 47.8182
-24.8227 -24.7538 47.6382
-25.2682 22.0176 69.2951
-40.3932 -13.983 63.0455
-15.5821 11.6175 0.0646896
-6.54189 -13.7373 47.7708
30.6699 5.88284 18.2381
30.9346 5.5357 18.9528
10.248 6.11642 1.43781
-32.7835 27.9153 78.0779
-31.4683 28.2438 77.4854
26.7157 -24.6142 22.3042
-27.964 -8.49933 0.971004
-31.5918 19.9287 76.0365
16.01 12.55 33.7299
-18.9478 -19.0907 44.9509
-41.7015 -10.684 53.5441
29.0887 -6.96946 0.147678
28.8136 -6.53439 0.0802193
-19.2236 -15.2885 55.6825
12.7741 17.224 30.4747
-2.47796 7.44835 82.9944
-14.5906 4.48386 67.6383
-29.0859 5.16438 58.9677
-34.5541 21.8554 74.3841
-34.5695 21.5787 74.1131
-5.12168 15.7492 12.7795
-11.441 -25.1368 31.5674
-6.31286 -14.7038 47.3617
25.0233 5.97834 40.4034
2.08755 12.4097 80.6902
-16.5469 11.2101 31.222
18.3026 -20.2088 46.0541
18.5265 -19.9634 46.3062
-22.6198 10.6783 33.476
-38.8679 -0.220086 46.7327
-22.2167 -1.06996 9.8285
-18.7741 -11.7179 8.84781
-24.1698 2.57134 56.8787
-7.09023 -10.2612 49.4191
3.89658 7.0905 1.44106
8.07788 11.0062 40.6049
8.24397 11.1341 40.0544
-14.4531 -24.284 25.481
17.2872 8.66156 42.3666
6.51685 14.8226 4.98102
24.8394 2.80281 4.80344
24.6763 2.53991 4.29787
41.7928 -2.79027 14.0299
4.223 14.3044 75.6108
-31.2693 3.54715 53.0435
-30.2051 3.83856 52.6418
-0.0181817 10.0354 83.139
12.9994 16.1802 11.0526
-21.9995 1.71665 13.9049
40.0346 -13.9145 18.3807
-14.3831 6.16564 13.5851
12.724 -19.299 1.729
13.1186 -19.1601 1.66108
7.34512 14.0131 4.47185
8.23525 14.7184 5.32978
-14.439 -23.2899 5.99987
-33.5508 -0.115342 64.7948
-33.2283 -0.440357 65.2852
31.6989 -17.6141 31.9683
2.59649 9.64759 74.8562
12.8312 -32.2536 27.1776
21.5267 -23.5245 2.6314
22.2052 -23.0799 3.22905
-27.2499 27.0715 65.8314
-15.8851 6.35992 3.60733
29.9436 7.59978 25.0191
0.262512 20.9623 25.7448
-30.6943 1.7574 18.5848
-29.0177 0.72837 0.907192
-28.9028 1.17292 0.836819
-19.5696 -13.9122 10.9685
-6.43771 13.9061 13.582
3.18609 10.9303 0.0083046
-6.11665 -12.9394 48.2098
-6.37722 -12.7016 48.3124
7.01101 19.9926 26.1436
-22.3708 -0.323465 12.6678
-32.3332 28.5629 79.0624
6.02179 -32.7921 19.3944
-20.4123 4.12003 14.715
-17.2421 -0.00114856 61.1295
11.0475 15.7641 8.62162
43.1485 -7.2609 15.0248
43.1483 -7.61628 14.7299
-36.0064 -17.1924 64.5666
-36.398 -17.6831 64.1885
-39.4462 -0.91313 48.7055
-39.6445 -1.37894 48.2334
-2.95907 -29.6116 31.0006
-41.0291 -10.941 55.7314
-30.7843 15.4736 62.0268
-31.1102 15.4292 62.216
0.742373 -30.4295 32.6422
0.933417 -31.0326 32.0572
-22.0253 0.558177 58.763
-10.0424 10.7078 21.862
-6.00616 18.7503 27.55
-4.8638 -28.7261 29.1269
33.2223 -3.14581 2.62166
21.7583 -23.3841 5.39426
-26.3735 -19.0561 3.92515
35.3802 -15.6799 17.0696
35.5301 -16.0096 16.762
15.8155 -25.1402 38.4806
16.7886 -24.6515 38.9047
-29.8466 14.5914 61.6357
42.2404 -11.3239 17.7224
-14.0357 6.36769 5.89151
3.76436 15.4126 79.1078
-16.0721 -25.3456 26.7047
-30.1339 -1.85431 1.47287
-23.2865 -10.2669 12.2678
-40.1016 -21.5314 42.4094
-10.642 -11.4375 49.997
-12.3471 12.124 31.1908
-20.9913 0.00131709 67.5908
-5.76426 -12.6749 48.3943
3.60976 11.7961 72.8288
35.4224 -6.09032 20.8781
-0.0852272 3.51938 69.0963
-28.7751 30.8318 80.4433
-28.3995 30.9147 80.3931
-25.6078 -24.6019 44.837
3.26346 8.21365 72.1993
36.1805 -5.99929 20.3335
-27.7007 -22.8331 62.0339
10.6355 -26.5066 0.0539398
-2.44977 -24.6208 37.8778
-1.63002 -24.7092 37.7215
-5.51455 -13.0682 48.2789
-19.1483 -12.5994 9.893
-19.173 -12.4319 10.2612
-18.9584 -11.8578 9.96784
-7.97723 15.3741 3.78832
-14.9225 -24.2326 35.701
-0.601927 -32.4884 27.5674
-0.164296 -32.3166 28.2733
0.0557655 -22.9071 1.56814
-0.0964576 -22.7599 1.59917
-32.5365 7.0778 64.2247
-16.9198 -24.8545 4.20361
-16.4913 -24.7687 4.21145
-27.196 -16.3932 0.857498
-24.8064 -24.9747 2.50375
0.149443 -32.375 28.1019
-30.341 -5.82266 0.199787
-32.3542 -23.5289 40.5705
17.2245 -2.17677 51.3504
10.5017 8.89075 44.7011
12.306 -16.074 51.2432
-7.02405 -13.8692 47.7542
-32.0126 15.0945 63.9741
-36.0539 -9.76584 21.4167
-22.5053 5.34314 46.087
-23.8507 4.96971 45.9156
9.66868 -28.4179 35.0367
17.978 -28.2905 12.2551
17.901 -28.4582 13.1869
-5.93063 17.7515 18.7268
-32.2578 12.176 66.907
33.8786 -3.51352 33.4175
2.87552 15.3816 78.6136
-29.3981 -30.3403 47.7929
-30.6245 -1.65018 0.0852547
-30.7042 -2.06221 0.143402
-2.57179 0.372986 1.20614
-5.60803 5.52379 80.9325
37.52 0.52483 8.54383
-33.9753 5.04053 26.2708
-21.8792 1.74317 54.6839
-22.3908 2.0995 54.5834
-19.0535 -24.9166 34.5831
-23.665 -5.54153 66.5598
-2.01558 10.0225 0.092823
-6.77735 -14.7182 47.3743
8.80821 -32.0588 29.9104
9.90129 -31.8828 30.018
-2.94204 20.32 19.6812
-2.73887 20.455 20.0293
10.2061 -0.893468 0.904163
-31.9559 19.155 70.4332
-31.849 19.994 70.8816
-25.5838 3.01398 57.2521
-6.78717 -14.1148 47.6198
38.74 -16.2204 10.1198
24.2817 -1.22088 0.15152
1.5703 5.71251 70.9753
-25.1245 33.2917 76.9402
-6.29741 19.057 25.1798
-30.816 -3.5607 0.245609
-30.6742 -3.35457 0.114616
-1.64523 -30.3928 0.969791
-2.34877 -30.5965 0.682037
-31.0892 -19.363 20.2332
-26.7333 -21.8401 41.5298
3.2705 15.5707 79.4628
-31.9147 6.95732 32.9433
-32.327 6.95657 31.6306
-35.788 -4.45096 20.5296
29.6852 2.42638 5.8059
0.841084 -29.2984 33.5506
-12.8959 -24.553 31.0167
10.9681 17.5974 17.8608
-27.3129 19.5464 74.0175
-19.4601 -20.6789 7.35821
20.2708 1.2259 0.0887985
-28.185 -1.87802 65.9145
0.59418 4.35005 69.3906
-29.5465 26.5606 71.6787
-21.4507 -17.7658 57.4025
-9.08458 7.06555 13.8601
17.2808 -25.3671 0.8162
31.314 -19.2493 29.0462
-15.5856 11.1486 1.41867
-15.2968 11.3703 1.80554
-15.4713 11.4586 1.29405
-18.8323 -0.523711 60.4844
-19.1034 -0.471274 60.4252
10.557 -25.5015 0.0366249
-31.1194 -5.28623 15.6639
23.2593 12.3131 27.8056
23.8153 11.9419 27.8059
-20.7347 0.0747638 57.2957
-38.5665 -6.82176 39.6397
19.16 -30.0675 24.5266
40.9105 -14.4534 16.4307
40.5888 -15.0485 15.8837
40.9432 -14.7386 15.612
42.382 -4.96386 12.4172
-18.5348 -22.1885 40.2154
-17.8956 -22.3203 40.2233
-33.078 3.16129 61.5285
20.698 10.0522 37.1696
-24.24 -24.7015 24.2747
-40.6471 -16.6295 58.4154
-5.03723 1.03444 1.19219
-29.0883 15.1373 74.0262
39.6038 -16.238 13.1065
40.1388 -15.7846 13.9984
39.5977 -16.2754 13.4733
2.71783 2.21728 49.6334
30.9993 1.18049 4.24691
31.034 1.44784 4.66117
31.8308 1.41382 5.1065
-32.0642 11.7501 64.8936
-32.096 10.6899 64.9912
-14.0392 0.812325 62.3695
-27.7699 -4.90069 4.64381
-6.62087 -24.6076 7.83237
-11.8538 5.33154 11.3495
-12.0433 5.29341 10.845
29.2521 -14.8147 41.273
7.57874 13.4064 3.90306
-24.4465 -20.035 56.9962
9.26857 15.9513 7.05467
-20.8342 -14.8811 64.3383
9.52803 15.8719 6.95157
-40.0317 -16.5206 56.259
4.0842 12.7538 73.8279
3.96226 12.8461 73.8308
14.7448 17.0495 25.1168
14.8245 17.1281 24.3057
5.93503 20.0604 25.4476
-0.854032 -29.5173 32.7083
4.97676 -16.5255 50.6061
-42.7814 -9.25406 48.5411
-6.69985 18.5886 25.5035
-30.7506 -7.38923 15.3117
-21.9986 1.12462 13.335
-25.0968 28.3589 72.249
-6.23297 -26.9098 27.7551
-5.99384 -27.2408 28.1903
-39.1507 -2.73689 33.6735
25.4059 -25.0847 31.3083
-5.26627 -30.6784 2.83644
-16.938 -9.19199 54.7907
-16.6857 -8.91433 54.3247
14.5253 16.9828 18.8649
-5.4558 -17.9289 45.8456
38.5189 -15.8986 16.7213
14.8385 -31.0468 16.7412
-9.04426 9.87191 39.9309
-8.7338 9.846 39.9344
36.375 -4.07428 19.6387
-8.15752 6.03264 45.468
-0.265182 -29.6758 0.0717812
13.9006 -23.6399 39.6278
-28.7468 4.09007 47.2943
-1.80544 -26.5812 7.86241
-17.793 0.897694 62.2303
-17.1866 1.12073 62.5184
-0.747526 -28.9003 13.0368
-25.2924 28.9019 70.3859
-25.467 27.3438 69.797
-40.3273 -8.25655 58.9183
5.63245 -24.8383 40.6037
-35.4725 4.00135 31.7862
-37.3215 1.88652 30.5456
13.8056 5.08769 0.470776
14.7059 11.9446 0.583633
14.9068 11.8647 0.498215
-9.98387 -24.1695 23.8764
-24.7873 4.03131 47.9095
10.4783 -32.2613 14.583
2.15789 -31.014 18.3889
11.8823 2.64468 50.1985
11.6696 1.8375 50.6707
13.9675 -28.9202 33.3395
-21.6853 -25.9265 4.06786
-37.2347 1.01808 35.2634
21.5001 -17.782 0.198749
1.13293 11.6047 82.0366
18.9746 -24.8528 6.65935
13.3672 -29.2601 33.3147
21.2492 11.2286 34.5824
-29.9119 -10.3856 14.7733
-30.5364 -10.3111 15.1963
-30.3586 -9.64386 15.001
-6.71352 12.8876 32.1747
-37.1953 0.576733 36.4625
-26.4783 4.09395 46.2642
-15.5302 -24.346 24.3731
-32.6743 -1.85837 65.7482
-32.1076 -1.74863 66.0346
14.4671 17.3326 24.2383
-3.8825 7.38924 82.0719
-32.9812 -30.1267 49.2686
-31.7383 16.7859 63.1006
-31.6949 17.3727 63.2238
-31.626 17.38 63.0477
11.3957 -30.4973 9.46213
15.3228 -29.9491 11.9192
-25.3556 32.7797 72.4252
-25.3393 32.3891 71.517
-6.30133 -12.535 0.778973
-23.8323 -16.1378 65.6498
3.03248 8.14652 0.905342
42.4429 -10.8169 17.5833
42.6113 -10.7703 17.1829
3.03881 7.61901 71.543
37.7748 -13.5416 19.3202
-8.92243 -25.5176 33.0835
-11.3781 9.26536 21.3573
20.4467 -28.6375 27.152
-32.3994 8.36654 64.4625
-19.9615 -21.8541 18.0875
-24.9413 1.76671 61.3919
-31.7785 15.5244 64.4494
-10.7991 -17.3129 46.5943
-4.20679 -30.8449 2.65091
-3.78084 -30.8721 2.34648
-37.6038 -26.4799 42.9411
-21.7938 -16.5786 6.16872
-18.8935 7.54371 44.5095
10.0759 12.9193 3.75787
-19.1857 -12.9218 9.07846
-18.8136 -11.8449 8.70961
-3.82183 -24.3022 11.0461
-7.2237 -24.3399 23.533
-6.89147 -24.5063 22.9876
-20.7874 -23.1185 38.9574
-20.8059 10.6326 24.2371
9.63876 -31.1385 11.7867
-25.928 -25.8525 29.6731
-32.4726 18.2412 70.4348
9.18137 -10.674 0.276444
-8.25568 16.6611 24.1692
14.0416 -31.9802 21.1523
12.7244 -16.5746 50.905
10.9808 -16.4143 51.0545
33.3 -13.5374 33.0524
23.3827 12.4456 17.624
-35.7895 -8.62163 20.4825
-41.8906 -12.0851 43.9543
-9.92026 14.5816 4.39505
-35.349 -28.0257 45.4077
9.92417 16.0014 9.07882
-2.03309 9.97689 41.6409
-17.6551 9.12438 22.0609
-7.60789 15.638 0.397739
41.1184 -2.34185 16.8361
-33.8079 1.87678 20.803
-29.9544 0.431782 67.2411
-29.8951 -0.294678 66.939
1.69641 10.4415 77.361
1.18155 10.439 78.4139
31.6086 4.52434 19.4848
-1.94906 -25.5769 34.682
-18.9035 -26.0141 27.1059
-18.7946 4.28491 4.83615
32.2993 -13.571 35.5468
-25.9871 8.87922 34.158
-20.3396 -21.3173 7.13193
27.7121 -13.5519 44.0465
38.7088 -16.7897 11.6353
-19.6797 11.2308 28.615
-14.4826 6.06743 13.2058
-22.9983 -21.3147 53.6147
2.02103 16.2913 33.506
1.04599 -22.4468 1.74462
-38.6886 -10.4847 39.4267
-11.2867 3.11357 64.6653
17.8826 -11.1048 51.4573
13.2477 -31.5331 17.3298
5.64405 17.7275 11.7855
27.7101 -18.8794 7.51799
18.8898 -4.6953 51.0195
-16.9032 -17.4244 0.0146523
-16.8728 6.29891 1.70864
8.79667 3.90061 48.9898
-34.0684 24.72 77.3127
-7.55012 8.60787 1.10801
-15.9243 10.0716 24.1726
-9.65789 0.414573 70.2716
20.1532 3.26326 0.309971
-2.90163 -24.9775 37.1187
-20.5616 4.23564 15.3208
12.3054 -30.3521 9.23626
12.0813 -12.5854 52.5059
-4.55025 -26.3326 7.70056
-37.3661 -2.36131 24.9347
-37.0771 -1.75414 24.8465
8.00645 -8.07223 0.536213
-32.7674 2.58678 55.7046
-33.2877 2.33237 55.6913
-22.5404 1.96608 56.4008
-22.3688 1.86171 56.1752
26.1328 10.3802 19.003
-11.6916 7.0653 44.8083
-26.0785 -15.6006 2.64047
9.37542 -30.1654 8.15391
1.49759 14.2191 4.18938
40.363 -11.7988 7.83997
-31.1766 -23.1194 33.6283
-33.1987 3.27387 49.0751
26.2605 -24.9994 22.7777
-17.9167 -0.357912 72.3028
-23.8965 8.75694 39.4005
17.1735 2.77569 0.0395393
-28.7696 4.04359 18.8805
-34.2873 4.52027 25.809
-30.81 21.4682 69.7441
-28.6726 1.41783 16.7867
17.5298 15.8789 22.9589
-6.08311 -25.6873 31.1132
-17.7807 -6.10029 61.0299
-7.81547 7.74301 10.8509
-12.2853 -2.29674 72.8081
-34.0185 -26.6133 42.0922
-25.1132 -23.3581 44.6164
-25.4806 -23.812 44.4164
-25.8148 -24.0339 44.0509
-6.72393 13.4616 6.17468
-16.8456 -16.7885 46.519
-23.9203 -7.38201 5.00105
-18.0205 -4.09385 59.061
-26.0557 -9.83816 1.39016
-2.46069 -8.67048 1.06033
20.4686 -21.5511 42.3152
-29.1553 7.95042 59.8568
-2.17894 -26.0834 33.7916
35.4976 -11.3138 19.9574
6.42151 -25.5361 36.0146
-20.118 -13.0612 63.2956
-20.0965 -13.3018 62.7729
9.18363 -11.0541 0.272064
-33.8576 -27.3108 42.766
10.7507 17.0149 12.0485
-32.4847 2.75261 67.2233
-32.3214 2.38002 67.1908
19.2225 -24.4657 0.701267
10.931 -1.53382 52.2251
-16.5255 6.00877 13.6252
-40.9888 -10.2534 55.3335
34.8165 -2.73106 19.9474
12.1718 16.2132 11.5751
-32.6663 -2.22801 65.7456
-16.6739 -23.9842 5.18285
-16.7238 -24.361 4.77434
-10.9685 -3.08422 66.9652
-13.5773 14.5298 0.139874
-30.1599 -11.2786 15.1502
23.5425 -3.52238 48.0326
23.874 -2.88728 47.6082
-30.6543 22.0911 63.5306
-30.6102 22.4573 63.6903
35.9458 -18.246 11.7549
-35.3895 -19.5107 33.8433
-36.1685 -18.7068 33.8195
5.6805 -31.6066 32.1561
40.7623 -8.2076 7.73166
-9.27467 13.2249 26.586
-7.91889 -25.6118 33.6384
-37.388 -3.81705 23.1981
12.163 9.36708 44.0024
-29.8279 24.8758 64.5342
-27.2963 30.9042 69.0479
-35.5534 3.0196 26.9552
-5.9542 4.45647 75.7319
-30.423 5.13468 20.8602
-33.5581 2.26423 54.9562
5.483 -20.1169 48.1599
13.5614 -17.3653 1.43648
8.16894 -33.3725 21.3448
-33.6775 7.80619 67.633
-33.6727 8.19243 68.1415
-8.77297 -24.0848 26.4005
-30.9932 0.727456 18.3908
-11.7183 11.584 33.9366
-29.2119 0.357709 0.751793
-7.91723 7.05642 9.12479
-8.57838 5.52597 9.40764
-12.3406 -15.3384 48.2746
-29.1773 23.8657 63.8251
-38.6013 -11.1456 26.2336
3.67586 13.1646 0.396469
32.864 0.695264 17.291
-19.7333 -15.1341 8.34974
23.4691 -21.1814 3.31115
-19.6152 -13.6329 57.4713
-21.7786 0.226066 11.4055
10.3638 -26.4281 4.43123
-41.9235 -21.4817 49.673
-6.22063 -0.958604 68.1223
-27.7549 31.9742 79.7905
-9.27708 6.5804 13.8323
-9.37195 6.4552 13.9001
-11.6303 -0.326158 0.299934
-16.8652 1.49175 73.0508
-4.95074 3.93741 80.1488
-30.0529 -0.512902 0.127537
-23.645 -18.9125 64.6864
-14.8445 -13.3509 49.003
2.40428 6.61607 70.7585
-1.05374 18.3893 31.5815
23.5534 -26.3909 31.321
-26.6412 8.60057 60.7238
1.27787 13.7583 82.4869
-1.69435 8.54451 83.4275
9.5759 -14.7227 1.42293
9.0662 -14.9338 1.45121
-12.2681 1.28739 63.247
-10.7182 2.2253 64.2406
29.3569 -21.9252 25.4711
2.9469 -32.1815 29.6759
12.2648 16.5649 13.6534
1.26829 20.3928 28.5427
-24.7424 33.0076 76.5004
-7.00773 -21.2196 11.7753
-38.2049 -10.743 24.3192
4.01653 -25.7749 36.0575
-12.3808 -3.75768 66.9559
-21.8882 11.0206 28.0677
-14.2258 -22.8031 7.3596
-26.0133 -10.419 0.428139
-26.0688 -10.3333 0.445629
-29.6015 8.28813 24.9492
-30.2462 8.00457 25.0618
27.9281 -22.9481 19.1678
31.0347 1.77931 36.5858
-10.9047 -24.5765 24.1065
-11.0808 -16.3034 47.5531
29.1048 -21.9947 17.1801
-37.8576 0.897042 48.149
-23.1165 -19.4564 61.1909
11.444 -13.4945 0.0232086
21.5404 5.13026 2.99612
-32.1088 -11.3376 17.2562
-31.8705 -11.3222 16.989
-1.68093 -9.92357 50.59
21.8328 13.412 26.9188
-26.2875 -17.4784 3.53831
33.6848 -0.817784 16.9282
-38.4334 -7.34981 64.4981
-38.5521 -6.77535 64.2157
-6.75188 -23.295 20.377
-35.9937 -28.0357 46.0332
-6.48697 -11.6873 0.540375
-16.6508 -1.90902 52.1491
-16.9415 -1.97293 52.5511
1.08639 -24.6628 0.163498
1.16816 -24.3585 0.228535
7.92543 16.3361 8.0604
7.79323 16.427 8.5898
-12.2649 -23.4984 4.98193
-12.3255 -23.1207 6.01721
-12.4469 -23.2849 5.68678
-8.87821 15.8617 2.19899
2.98926 -30.4083 12.1139
-37.9129 -4.20329 59.2061
-9.26764 -10.4344 49.9662
19.6053 -29.7554 24.8803
-32.7677 7.04302 64.8539
-19.252 -19.5215 50.753
29.6277 2.82738 8.70554
-40.0857 -7.12841 56.0807
3.00726 12.3027 78.3497
-18.871 -9.1548 10.316
-16.5873 6.99392 16.3657
-14.1621 -24.3682 24.6074
-1.06473 -28.5848 13.2752
-0.816935 -29.1015 14.6344
-25.0985 19.5356 68.3289
-8.12274 13.0921 29.5448
-8.62849 13.1629 28.8375
12.2401 -31.9978 15.5107
-35.5104 -18.7181 40.6957
-40.3257 -7.46084 55.6861
1.7073 12.5562 81.6524
-36.0399 -0.286897 42.5617
-36.3933 -0.135081 43.1229
-13.7478 -21.1001 41.7505
-24.977 7.80028 19.9178
-12.883 -2.18638 68.8055
0.0231227 -25.7992 34.8312
-32.5542 23.9447 77.9503
-32.2916 22.9062 77.4446
-32.2322 24.829 78.4884
-5.21366 -25.7677 32.0036
37.6729 -17.4931 12.5747
-17.2668 -23.679 37.0892
25.6679 0.613527 44.9648
26.619 -0.188082 44.5075
-22.1668 1.82633 55.0715
41.8108 -7.28012 9.61636
42.364 -7.19039 11.1385
-41.8827 -10.1577 43.5651
-3.08798 3.29702 67.2262
-23.0358 -18.2132 64.8451
-27.5613 -20.2029 0.249989
-16.1213 8.99264 1.41167
4.65835 -32.4985 29.4966
-28.0257 -24.4131 31.9508
-27.413 -24.2298 33.6277
-4.0641 15.1643 3.63411
-32.4899 5.1099 61.6344
-32.2822 4.63288 61.0585
-32.4161 2.82016 55.1639
-36.5183 -15.5992 23.903
-38.895 -19.0911 42.09
-38.4604 -17.853 42.2253
15.1261 -11.8551 0.0304336
17.6707 -8.98228 0.0193138
0.338173 -25.8338 34.9414
26.5163 3.47427 42.1697
-38.739 -9.58869 26.2098
-19.0051 11.1727 35.7137
28.8801 -22.7031 29.9859
-17.3658 -23.9163 36.5695
-29.7222 -30.1656 45.398
-25.0626 -23.0152 44.3997
7.18448 -6.77718 1.14713
-30.7369 20.8265 76.2807
-22.5709 -6.31812 6.23238
-37.0076 1.3286 48.7621
16.94 -27.7057 33.8608
-11.613 6.55018 45.3446
-26.8042 -0.587412 65.133
16.1278 13.1286 5.47073
-7.28171 9.4056 8.76679
-31.5182 21.4296 76.7402
23.025 12.7853 26.5054
-41.0246 -10.6608 56.3624
-26.6832 -1.96075 65.4229
-26.446 -14.6256 0.45734
18.1812 3.49736 0.106956
34.9829 -8.43906 3.07266
-26.7887 10.8898 61.2686
-15.2221 -5.77133 52.1189
15.8262 -17.5179 0.226734
-26.5294 19.6741 64.625
-4.03217 -23.7314 0.436966
-27.799 -27.1351 51.8607
-8.51566 2.09432 48.1768
-8.69824 2.59601 47.926
-19.6264 4.01363 0.0530891
28.3128 -18.3045 7.29116
28.3909 -18.4827 7.70882
13.4738 17.0252 30.1002
-12.5551 5.42738 11.8632
-31.8504 24.9949 78.594
-23.0405 -0.549925 13.1873
-32.0864 -22.8658 31.8451
-21.1665 -0.0201724 59.3842
-30.5908 15.9076 62.0223
-30.8996 15.9652 62.1867
2.39598 -30.7106 13.1478
2.79349 -30.924 13.2508
2.32467 -30.8655 13.5823
-23.1714 -3.36444 0.0107079
-21.3422 -18.5333 55.5889
8.03286 8.29842 0.125034
5.43541 -27.3308 5.75366
-25.7852 3.17854 64.371
-25.6746 4.40089 64.716
2.8486 16.8632 8.28013
0.117967 -28.9598 33.5005
18.6007 8.01997 0.134193
18.2926 8.03788 0.0732651
-25.626 18.4292 65.4655
-25.6678 19.529 66.0261
-30.3632 21.9896 63.1532
-25.367 29.339 70.0743
-11.591 -1.25241 69.2119
-41.5479 -6.85485 43.7667
-39.6741 -8.44783 64.1017
-39.5152 -8.07272 64.1028
-10.8851 -22.6719 6.94408
9.32867 -31.8168 30.6792
-18.5823 4.03563 5.88518
-28.6131 29.6145 80.2405
-20.2212 -16.3416 7.33297
-11.903 -1.40974 69.1912
15.6602 -28.5236 8.37095
32.4042 3.90016 30.145
24.1369 4.88451 42.4581
24.1388 4.48091 42.8852
24.0071 -17.014 45.6744
1.57527 14.4835 4.60978
-19.966 -20.8946 48.0744
-9.22891 -24.1501 25.7129
8.84552 -4.73926 0.121147
3.09561 -28.5138 0.0109329
3.52254 -28.424 0.0521736
32.2817 -17.387 13.6095
-8.81106 14.6492 21.7195
-1.53905 11.5499 39.1586
16.6103 -25.5958 38.0173
16.18 -26.2421 37.4012
-33.1391 6.41763 31.7332
-6.61888 2.73312 65.8571
-21.1294 5.22374 0.377884
-26.7603 -28.0229 48.6127
-29.7384 25.0784 69.2528
33.6255 2.53608 8.09336
17.3756 3.72651 48.2163
2.8926 -15.8428 1.31867
-14.8281 -2.52498 61.5578
-15.4325 -2.37575 61.1266
3.63076 -31.5487 13.9316
-6.96582 -21.1314 9.66826
-3.33299 9.69332 81.1656
-33.5553 20.648 72.6199
-4.61204 -24.2977 38.0087
-17.3734 -17.335 49.1948
-16.3393 -5.28255 67.2797
19.9233 -29.0529 20.033
-30.7185 9.40222 60.6686
-30.9793 9.40203 60.9647
-9.89962 12.7582 28.6374
-10.2772 12.6377 28.6967
-8.89453 6.12249 12.8163
10.4037 -26.8195 35.5524
-3.65445 -25.0849 15.263
-4.5861 -23.8617 15.5964
-10.4769 -25.6821 0.119503
-5.08399 -4.47528 49.7116
-34.6582 0.736142 59.8237
-34.7465 1.13962 58.5465
-8.25297 -17.5337 0.466087
11.2493 -30.6009 11.2848
2.20328 -18.645 48.5221
-10.7334 15.177 2.85216
2.99175 15.3949 80.2886
5.82319 -24.6664 0.0355911
-16.3581 -15.0964 49.7146
14.6378 -11.6586 52.4065
-10.3271 15.1421 3.3517
-40.7483 -25.5098 45.2345
5.76656 2.51243 50.3155
-40.0237 -12.6062 32.9482
-10.0819 15.1573 3.52123
-9.91352 15.4244 3.05326
-18.6999 -19.2067 9.2415
-26.3893 3.68725 17.1408
-12.7467 -24.1071 2.98304
-12.5886 -24.1278 2.71455
-6.04303 1.39411 70.0157
-24.832 33.3949 75.8473
26.8804 7.92879 12.0215
39.9378 -15.7908 15.3761
-15.585 7.4596 16.6472
-31.6743 -2.71197 66.0489
-25.7469 -18.7128 4.70196
-34.431 -25.4621 59.6962
-34.152 -25.9044 59.3545
-34.0144 -25.4109 59.9411
-32.011 16.9879 74.7976
-10.8361 14.8502 3.40456
6.76596 -19.777 48.6263
-8.70376 0.833646 70.2534
0.264829 20.534 28.181
-31.0389 18.113 67.2378
-19.0712 -9.14561 10.6061
19.6872 -24.3482 1.2174
24.9925 -4.0939 47.0558
24.2881 -4.43264 47.6886
7.92941 -24.3345 41.9001
-20.3461 -17.3133 14.236
-32.4603 3.07835 20.5201
3.35763 -6.07513 1.22003
0.702561 -16.8327 49.0354
12.2467 -19.1506 1.8011
-4.053 18.1894 30.5959
21.7358 -21.3452 41.9508
-2.03912 -21.9736 43.1205
-23.9603 -23.6252 5.31459
