# .PCD v.5 - Point Cloud Data file format
VERSION .5
FIELDS x y z 
SIZE 4 4 4 
TYPE F F F 
COUNT 1 1 1 
WIDTH 919
HEIGHT 1
POINTS 919
DATA ascii
-7.58759021759033 15.7230997085571 28.0510997772217
-7.84469985961914 15.9471998214722 27.1408004760742
4.15697002410889 15.0865001678467 77.8431015014648
-14.7059001922607 13.424599647522 0.451934993267059
-14.8036003112793 13.279899597168 0.326534003019333
-18.8337993621826 -6.08444976806641 67.4835968017578
-17.7378997802734 -5.25296020507813 68.6645965576172
5.37525987625122 -3.20604991912842 52.0116004943848
-33.018798828125 8.67879962921143 70.1101989746094
14.8374996185303 -30.0070991516113 10.6187000274658
15.8280000686646 12.9752998352051 33.4212989807129
15.6565999984741 13.9856004714966 32.733699798584
-30.9855003356934 10.7444000244141 61.4403991699219
-8.06214046478271 7.44253015518188 8.27058029174805
-41.2481994628906 -13.7676000595093 59.6453018188477
-32.7967987060547 -30.1996002197266 47.4178009033203
-0.276591002941132 -26.2007007598877 34.4819984436035
4.21837997436523 16.6854991912842 8.01531982421875
-19.3171997070313 -11.8166999816895 10.8457002639771
-33.3237991333008 1.84403002262115 59.9043006896973
-27.3533992767334 -17.2000999450684 0.0958900973200798
-26.1975994110107 2.01119995117188 64.7200012207031
-22.7625999450684 0.0322981998324394 13.2012996673584
-13.4533996582031 -4.22273015975952 65.5771026611328
5.14989995956421 15.6939001083374 5.88184022903442
-9.65155982971191 7.06239986419678 75.6738967895508
5.74443006515503 -10.4963998794556 1.21855998039246
25.8661003112793 -12.47350025177 0.191012993454933
24.3085994720459 -12.8051996231079 0.044013999402523
38.780200958252 -12.8752002716064 6.75490999221802
1.06675004959106 -29.9571990966797 33.1688003540039
-15.7761001586914 -24.1182994842529 19.9265995025635
-15.9154996871948 -24.1655006408691 20.5179004669189
15.2529001235962 -0.617053985595703 51.4062995910645
14.9271001815796 -1.28371000289917 51.7383003234863
-23.3295993804932 -3.37649011611938 6.7882399559021
-24.9845008850098 -24.9284992218018 49.0769996643066
-25.1541004180908 -25.051700592041 49.4043006896973
14.0480003356934 -18.7481994628906 1.29295003414154
14.3256998062134 -19.0233993530273 0.980785012245178
34.3647003173828 -7.66350984573364 31.5207004547119
30.5408000946045 5.0323600769043 15.4537000656128
-30.3188991546631 22.5974998474121 63.4090003967285
-30.4818000793457 -11.356499671936 15.4415998458862
-37.3400993347168 -15.1131000518799 40.8636016845703
12.5770998001099 17.3307991027832 30.2910995483398
11.1512002944946 17.2751007080078 31.1366004943848
-11.5882997512817 -3.38457989692688 67.2337036132813
-19.3185005187988 6.11805009841919 46.4771003723145
-5.67201995849609 4.43043994903564 80.7852020263672
-11.2588996887207 -15.9993000030518 47.8144989013672
-18.6116008758545 -26.4640007019043 1.10511994361877
17.3509998321533 -25.2828006744385 0.552722990512848
17.1923007965088 -25.2693004608154 0.360381990671158
28.7332992553711 1.58459997177124 3.9129900932312
-3.48760008811951 5.06394004821777 67.7888031005859
-2.26382994651794 5.57449007034302 68.3476028442383
-21.7763996124268 -15.6386003494263 65.1185989379883
-21.5519008636475 -15.3760004043579 65.033203125
-21.949499130249 -14.9871997833252 65.3613967895508
-38.7593002319336 -8.35249996185303 40.2159996032715
-38.7456016540527 -8.09514999389648 40.1511001586914
14.7091999053955 17.3138999938965 21.1081008911133
14.4876003265381 17.5526008605957 21.5965995788574
-35.1995010375977 0.89511102437973 57.7849006652832
31.2394008636475 -16.3297004699707 35.4324989318848
-1.08896994590759 10.6766004562378 83.404296875
0.175913006067276 -3.61248993873596 50.9001007080078
-7.70060014724731 8.45590019226074 74.132698059082
-6.68158006668091 8.95697021484375 74.7528991699219
-22.243200302124 -7.00556993484497 6.02921009063721
16.0984001159668 -30.6527996063232 25.5165996551514
-17.9500999450684 -0.00117106002289802 61.1106986999512
42.4429016113281 -11.815299987793 16.463399887085
-34.7321014404297 -16.0884990692139 22.0221004486084
-6.22713994979858 -11.4724998474121 0.689800024032593
-8.74977016448975 7.81368017196655 1.13680994510651
-23.5795993804932 10.4252004623413 29.4253997802734
-23.1888008117676 10.6640996932983 29.2159996032715
-23.4839000701904 10.52649974823 28.5858993530273
-2.10852003097534 10.9263000488281 75.2886962890625
-5.78838014602661 -10.6934995651245 0.759021997451782
-14.7386999130249 -4.65854978561401 64.0968017578125
-34.8847999572754 -27.9958992004395 44.5237007141113
-34.8474998474121 -27.8901996612549 44.2920989990234
-18.730899810791 -25.4204998016357 30.8715991973877
27.1406993865967 2.50477004051208 42.331298828125
8.69312953948975 -3.44148993492126 0.872456014156342
-3.03681993484497 12.207200050354 37.135799407959
-14.1220998764038 -3.58475995063782 67.3858032226563
-15.3045997619629 -24.3523998260498 23.0795993804932
6.26432991027832 -27.1401996612549 4.78613996505737
-14.2188997268677 -24.455099105835 28.3306999206543
-14.1934995651245 -24.4381999969482 29.0475006103516
14.9240999221802 -19.2759990692139 0.335045009851456
-40.0337982177734 -14.2532997131348 63.2840003967285
-31.519100189209 3.83651995658875 59.6255989074707
17.5853004455566 -27.5277004241943 9.30982971191406
-28.9328994750977 7.67557001113892 22.4613990783691
34.9420013427734 -18.5592994689941 11.9779996871948
6.76767015457153 -9.25461959838867 1.18168997764587
-26.543399810791 -11.5172996520996 13.5476999282837
-27.7143993377686 -11.6017999649048 14.0198001861572
25.1005992889404 -1.64131999015808 46.3259010314941
11.9161996841431 16.6217002868652 13.1183996200562
-16.8087005615234 2.6460599899292 71.6345977783203
-27.8031005859375 25.8043994903564 64.8554000854492
-19.1095008850098 -17.9270992279053 12.2123003005981
-18.6054992675781 -26.1039009094238 27.6590003967285
-13.2829999923706 2.65721011161804 0.23701499402523
-0.914620995521545 -1.7316700220108 50.1450996398926
-40.280101776123 -9.25312042236328 34.9687004089355
-39.9099998474121 -22.1986999511719 42.3171997070313
-2.59839010238647 -30.2395000457764 21.3516006469727
12.7743997573853 -23.9253997802734 39.2024002075195
13.1386003494263 -23.7845001220703 39.619701385498
-21.3467998504639 -17.3635997772217 14.6183996200562
-20.5620994567871 -18.0233001708984 14.7937002182007
24.8889007568359 -25.0419998168945 32.4682998657227
23.6830997467041 1.22203004360199 1.74644994735718
26.0174999237061 -15.1653995513916 1.43187999725342
-24.9699001312256 18.3950004577637 69.3609008789063
21.7730007171631 13.819899559021 21.4057006835938
-6.19718980789185 12.4175996780396 7.76243019104004
0.559762001037598 -31.9437999725342 30.2912998199463
10.4790000915527 12.3065004348755 35.000301361084
-3.80443000793457 14.6094999313354 5.22687005996704
-38.8843002319336 -27.247200012207 49.7319984436035
-16.9853000640869 6.15326023101807 0.250164002180099
5.42593002319336 11.4117002487183 0.015022300183773
-31.528600692749 0.867739021778107 18.8283996582031
-16.6791000366211 2.17603993415833 72.5920028686523
-24.9519004821777 -0.85471099615097 64.3337020874023
-8.11137008666992 1.1450799703598 76.5463027954102
-30.932300567627 28.0650005340576 76.7893981933594
-26.6429004669189 -19.3164005279541 0.114559002220631
0.38485199213028 18.327299118042 31.7425994873047
-0.478341996669769 18.0223007202148 31.9822006225586
-8.71621990203857 -28.8474998474121 0.477524012327194
-33.9309997558594 12.3193998336792 68.7535018920898
-20.1392993927002 -17.4274005889893 7.54070997238159
-16.090799331665 10.4060001373291 25.1541004180908
22.1336994171143 -23.3094997406006 4.4064998626709
15.7871999740601 -19.859899520874 47.6663017272949
2.39754009246826 10.4294004440308 40.9099006652832
2.03201007843018 10.1716003417969 41.1319999694824
-10.4344997406006 8.80043983459473 42.5526008605957
26.3642997741699 -23.0037994384766 11.8804998397827
2.51740002632141 -30.5457992553711 12.7103996276855
30.9013996124268 -14.4173002243042 2.51754999160767
30.5751991271973 -15.0502996444702 2.72474002838135
6.41562986373901 -30.7980003356934 11.4531002044678
-26.6700992584229 -23.0510997772217 0.778126001358032
-7.17571020126343 1.33343005180359 65.442497253418
-26.5048007965088 -23.451099395752 0.477187991142273
-26.4906997680664 -23.5368995666504 0.240100994706154
-1.46881997585297 -29.8421993255615 17.5496997833252
15.7344999313354 -23.0139007568359 40.6516990661621
20.2966003417969 -0.417688012123108 49.2145004272461
-28.1021003723145 -8.57213020324707 0.553103983402252
-27.6795997619629 -8.82676029205322 0.940487027168274
21.2161998748779 -17.1487007141113 47.8222999572754
29.2063007354736 -22.0886993408203 20.6980991363525
-25.1448993682861 -25.1523990631104 0.388350993394852
-25.2570991516113 19.6494007110596 67.5960998535156
-25.0669002532959 18.9542007446289 67.9835968017578
-30.1580009460449 -14.0023002624512 16.6112995147705
26.1154003143311 -24.7709999084473 26.4853000640869
-2.73908996582031 13.0881996154785 33.6446990966797
-28.8164005279541 -22.9475994110107 23.2376003265381
8.27921009063721 -25.7586994171143 35.9701995849609
0.44625198841095 -28.9783992767334 10.5006999969482
23.0067005157471 12.9050998687744 25.7616996765137
28.7823009490967 5.7536997795105 35.6682014465332
1.52100002765656 -30.7073993682861 14.9772996902466
18.3684997558594 -28.5552005767822 14.3193998336792
28.5212001800537 -5.61084985733032 43.5759010314941
-20.4230995178223 -17.5874996185303 55.556999206543
-32.8358993530273 -1.66506004333496 65.6566009521484
-4.59181022644043 15.2609996795654 0.677112996578217
-4.59133005142212 15.2271003723145 0.431957006454468
-15.3596000671387 -23.9587001800537 5.14869022369385
37.8549995422363 -6.79511976242065 20.5550003051758
-16.6893997192383 -23.8677005767822 20.1019992828369
-23.5792999267578 -21.8791999816895 40.7002983093262
-23.0235996246338 -22.0830993652344 40.44580078125
29.1229000091553 -20.3896007537842 11.9806003570557
-31.1077995300293 20.2406005859375 63.4347991943359
-31.0387992858887 20.37619972229 63.2921981811523
40.6839981079102 -10.1124000549316 20.0594997406006
6.78025007247925 -27.4694995880127 0.291366994380951
-12.9390001296997 -17.4906997680664 46.2354011535645
-8.13936042785645 6.67190980911255 8.79594993591309
-3.75956010818481 -30.8047008514404 3.02296996116638
-4.05188989639282 -30.7334995269775 3.36262011528015
-26.0650005340576 -27.1599998474121 47.5876998901367
-34.5317001342773 1.36434996128082 58.4502983093262
-9.13951969146729 -24.451099395752 27.788200378418
8.47994995117188 18.3829002380371 18.5825004577637
-25.221399307251 21.6039009094238 70.8535003662109
-25.2831001281738 21.3803997039795 71.1129989624023
8.8315896987915 -9.50113964080811 52.7851982116699
-25.2738990783691 11.4383001327515 68.7443008422852
-21.2446994781494 1.32562005519867 10.480899810791
-33.415699005127 12.0649995803833 71.2968978881836
-22.988899230957 -13.9256000518799 13.4590997695923
-22.8974990844727 -13.2864999771118 13.1146001815796
-11.9507999420166 12.3760004043579 4.8025598526001
-24.7451000213623 9.33701038360596 33.7840003967285
-17.4018001556396 5.97544002532959 0.496571004390717
-17.2632007598877 6.01255989074707 0.441525012254715
-36.5957984924316 2.3329598903656 32.769100189209
-34.290599822998 17.5622005462646 71.4124984741211
29.3101005554199 -22.1571998596191 22.63450050354
1.27705001831055 -27.5561008453369 7.17738008499146
-18.9909992218018 5.75502014160156 0.499805986881256
-5.5495400428772 19.6033000946045 25.0715999603271
-21.7026996612549 0.211897999048233 59.3274002075195
-15.9891996383667 10.4350996017456 0.96698397397995
-32.0377998352051 20.9866008758545 71.8030014038086
-19.7877998352051 -11.5312995910645 4.99441003799438
-19.6362991333008 -11.6971998214722 5.22531986236572
16.6937999725342 -29.086799621582 11.3104000091553
-5.68742990493774 13.1122999191284 8.36989974975586
-5.91371011734009 -23.5323009490967 38.5918006896973
-6.25039005279541 -22.7961006164551 39.6859016418457
-20.8822002410889 -20.2124996185303 43.8978996276855
-20.6275997161865 -20.089599609375 43.8140983581543
-23.9178009033203 -24.601900100708 34.8025016784668
-21.7875003814697 -20.7665996551514 43.7658996582031
9.63687038421631 9.80323028564453 43.2263984680176
-25.9055995941162 6.19942998886108 60.4599990844727
-2.72047996520996 -4.57892990112305 1.14179003238678
-33.584400177002 8.57122993469238 68.8321990966797
17.4640007019043 -28.4643001556396 11.4256000518799
8.103759765625 17.6051998138428 32.219898223877
24.3460998535156 -26.3560009002686 22.9276008605957
39.4594993591309 0.228729993104935 13.0713996887207
39.3866004943848 0.228449001908302 12.3200998306274
-29.8278007507324 -3.32823991775513 2.40366005897522
-32.8643989562988 19.8544998168945 75.5151977539063
21.0007991790771 14.5183000564575 17.2112998962402
-19.2306995391846 -16.4867992401123 54.948299407959
-40.8148994445801 -15.625 44.1626014709473
-4.83557987213135 -29.7744998931885 24.5443000793457
-33.3386993408203 4.42543983459473 65.5002975463867
-24.9920997619629 -0.972876012325287 64.4779968261719
9.45121955871582 -32.1456985473633 18.0051002502441
-32.8274002075195 7.09660005569458 63.2830009460449
-9.0775899887085 10.2299003601074 39.374698638916
5.2974100112915 -0.595604002475739 51.3912010192871
-24.8565998077393 32.99169921875 77.227897644043
-26.0333995819092 -22.2154006958008 56.7990989685059
4.33477020263672 -23.1851997375488 0.482796013355255
-38.4509010314941 -0.415273010730743 51.8288993835449
-27.0414009094238 23.6189994812012 65.2966003417969
-26.1858997344971 -10.2009000778198 0.447715997695923
-26.1641006469727 -10.2386999130249 0.514275014400482
13.3104000091553 -21.4136009216309 46.1156997680664
-40.0793991088867 -15.9140996932983 56.5859985351563
-40.0595016479492 -16.3906002044678 56.4740982055664
-25.8462009429932 -15.0501003265381 1.74215996265411
2.61069989204407 -12.7959003448486 51.375
3.54310989379883 -30.4801998138428 33.2985000610352
-25.6639995574951 17.5969009399414 64.9369964599609
21.0755996704102 11.5970001220703 7.12356996536255
-32.0261993408203 11.1412000656128 65.8722991943359
-7.73165988922119 8.37421035766602 75.0064010620117
-8.72576999664307 7.86570978164673 74.7344970703125
-4.04887008666992 -30.8094997406006 0.318194985389709
42.8615989685059 -5.43713998794556 14.5560998916626
-25.923999786377 21.6501998901367 66.7136993408203
2.18651008605957 13.9684000015259 82.0927963256836
-8.96378040313721 16.105899810791 0.254725992679596
28.216100692749 5.08257007598877 38.1414985656738
-8.93986988067627 5.32960987091064 10.6364002227783
-1.35164999961853 8.92107009887695 0.764720976352692
-0.529579997062683 3.84353995323181 70.338996887207
0.00991197023540735 4.16194009780884 70.4135971069336
30.0734004974365 -20.8129997253418 18.5925006866455
-36.628101348877 -6.8981499671936 22.1347999572754
25.6348991394043 -2.64993000030518 0.0354575999081135
-35.6707992553711 -27.9524002075195 45.5490989685059
-41.809398651123 -21.8187007904053 44.4631996154785
33.671501159668 -14.9777002334595 18.5445995330811
34.0797996520996 -14.0960998535156 19.1263999938965
32.8414993286133 2.83940005302429 9.77200031280518
5.32043981552124 14.6379995346069 34.4598007202148
-11.9856996536255 -24.9374008178711 0.637893974781036
30.7744998931885 -7.53926992416382 0.933688998222351
-13.6553001403809 -4.64309978485107 51.3958015441895
-33.003101348877 24.357400894165 78.005500793457
-18.0821990966797 5.37519979476929 13.2398996353149
-18.3715000152588 4.81379985809326 12.1526002883911
9.73999977111816 -10.1113996505737 52.8278007507324
-12.9107999801636 10.4043998718262 38.7762985229492
-26.9834995269775 -22.6937007904053 42.181999206543
-34.1259002685547 24.0997009277344 76.9536972045898
32.7327003479004 -18.2728996276855 6.38289022445679
-31.6254997253418 -3.86455011367798 16.4694004058838
-7.63270998001099 2.86580991744995 79.2436981201172
1.67159998416901 -24.7317008972168 39.1184005737305
38.1493988037109 -5.37186002731323 20.2208995819092
29.8556003570557 4.89729022979736 34.2060012817383
-27.9720993041992 -29.5538997650146 45.8231010437012
-27.1539993286133 5.82011985778809 42.4155006408691
-30.176399230957 -2.41961002349854 66.3480987548828
-7.34474992752075 2.75920009613037 79.3052978515625
-19.5727996826172 1.07138001918793 53.1745986938477
-18.7590999603271 0.352521985769272 52.9353981018066
-16.6662006378174 -21.645299911499 13.5995998382568
-16.0634994506836 9.99824047088623 0.0868759006261826
-18.6571998596191 5.80469989776611 0.37389001250267
18.8348007202148 -25.2383003234863 4.01181983947754
-34.603401184082 20.8113994598389 73.8481979370117
22.3127002716064 12.960000038147 15.0604000091553
-28.6459999084473 27.8822002410889 66.2733993530273
-8.5104398727417 16.2717990875244 23.5217990875244
-8.43517017364502 16.457799911499 23.1252994537354
-7.10234022140503 18.0380001068115 25.5081996917725
5.87452983856201 16.972900390625 8.85964012145996
34.1013984680176 -13.9533996582031 27.2544994354248
-41.6669006347656 -9.85686016082764 43.2498016357422
-41.6889991760254 -11.0291996002197 43.3708000183105
-41.8204002380371 -10.8127002716064 43.5094985961914
1.94907999038696 7.32482004165649 72.5472030639648
-25.2667007446289 18.0543003082275 66.2553024291992
-12.4561996459961 -24.1086006164551 2.81929993629456
-10.0510997772217 11.9607000350952 33.573299407959
-12.1279001235962 11.7018003463745 33.2009010314941
-40.4003982543945 -23.9794998168945 43.2416000366211
-29.3938007354736 -28.57080078125 43.1568984985352
2.68582010269165 17.7437000274658 9.81346035003662
35.0080986022949 -14.1195001602173 18.3570003509521
2.09496998786926 -32.2016983032227 30.3747005462646
2.728600025177 -32.1001014709473 30.6917991638184
-28.305700302124 4.15359020233154 58.3778991699219
0.376735985279083 -19.3903999328613 47.1800003051758
-34.8797988891602 0.892490029335022 21.4470996856689
-34.5166015625 1.18603003025055 21.1198997497559
-18.589599609375 -9.75743961334229 9.98573970794678
-10.3529996871948 0.415192991495132 76.6802978515625
-9.52824974060059 1.08421003818512 77.4126968383789
-40.5247001647949 -16.8290996551514 58.1283988952637
35.9168014526367 1.97161996364594 12.4075002670288
35.5075988769531 2.21474003791809 11.6991996765137
35.1506996154785 2.20668005943298 11.8646001815796
-25.5874996185303 -24.7234992980957 0.348522007465363
-25.6756000518799 -24.6324005126953 0.154923006892204
6.70222997665405 -32.0511016845703 15.3950004577637
-10.7004995346069 1.18748998641968 49.6408996582031
-34.4981002807617 -20.5995998382568 31.0109004974365
-34.5438003540039 22.099100112915 74.5416030883789
10.6602001190186 -32.111198425293 20.4610996246338
-19.9948997497559 -8.1361198425293 7.12157011032104
-27.3451995849609 22.0729007720947 64.492301940918
-27.8043994903564 22.4188995361328 64.0067977905273
-27.5109004974365 22.4209003448486 64.3582000732422
-28.2775993347168 -16.4433994293213 66.0529022216797
-24.8525009155273 14.1687002182007 67.8753967285156
-24.904899597168 13.8278999328613 68.2667999267578
-6.6168098449707 7.41449022293091 44.127799987793
-33.3331985473633 3.06663990020752 40.0517997741699
36.1538009643555 1.84957003593445 9.48822021484375
-2.49918007850647 15.0743999481201 3.19668006896973
-8.0968599319458 1.64723002910614 78.272102355957
12.7592000961304 3.36899995803833 1.2494900226593
-8.08689975738525 12.502799987793 32.1105995178223
-19.8558006286621 -9.54300022125244 11.0982999801636
-24.2840995788574 -24.0704002380371 47.2450981140137
-9.67457008361816 5.34865999221802 67.075798034668
-6.57601022720337 11.7868995666504 9.0346097946167
-6.78201007843018 11.3577003479004 8.326979637146
-18.8945007324219 -8.35396003723145 60.7285003662109
-27.1483001708984 -22.2056007385254 62.6204986572266
3.90522003173828 14.4745998382568 78.9487991333008
2.87758994102478 -31.3645992279053 14.5666999816895
2.41454005241394 -31.1221008300781 14.3037004470825
4.16488981246948 13.6993999481201 74.7065963745117
25.6205005645752 7.51262998580933 7.86083984375
26.0100002288818 6.99912023544312 8.34261989593506
-14.7456998825073 2.1520299911499 74.8877029418945
-35.5271987915039 -1.31053996086121 21.6669006347656
-16.2360992431641 0.658960998058319 61.7862014770508
7.93976020812988 -31.1121006011963 12.9787998199463
-36.7568016052246 -2.91375994682312 63.2830009460449
26.7716999053955 2.43937993049622 42.7620010375977
26.3537998199463 2.46678996086121 43.1260986328125
-18.8610000610352 11.3902997970581 32.8535003662109
9.2507495880127 -7.60640001296997 0.123053997755051
-33.3269004821777 -21.8803997039795 27.8673992156982
-26.9622993469238 0.595305979251862 65.2768020629883
-33.7383003234863 26.7182006835938 77.5683975219727
10.3931999206543 -30.8556003570557 11.3065004348755
-16.9985008239746 -6.03092002868652 65.9721984863281
-27.2369995117188 4.42532014846802 58.8194999694824
-30.761100769043 -3.83802008628845 0.284397006034851
-34.1817016601563 0.659895002841949 61.5787010192871
16.6438999176025 15.815299987793 15.1248998641968
-34.5859985351563 2.21573996543884 52.0877990722656
-7.68285989761353 15.7739000320435 2.6916298866272
-3.00921988487244 -28.7714004516602 31.7296009063721
-37.1447982788086 -26.8745994567871 43.1898002624512
-11.4428997039795 -1.08074998855591 69.388801574707
-11.2618999481201 -1.16665005683899 69.189697265625
-24.8264999389648 3.44854998588562 52.8993988037109
-26.2677993774414 3.85000991821289 52.2896995544434
39.3931999206543 -9.43292999267578 20.62619972229
-4.10837984085083 15.2313995361328 1.17621004581451
22.4666996002197 -26.1422996520996 12.9616003036499
-21.5562992095947 -19.2075996398926 55.0102005004883
-22.103099822998 -19.8896999359131 54.7346992492676
-37.2919998168945 -14.914999961853 25.1534004211426
-18.2625007629395 -6.73207998275757 60.4267997741699
-18.3358993530273 -6.91008996963501 60.1472015380859
14.3482999801636 -27.7677993774414 34.5359001159668
13.8222999572754 -27.5846004486084 34.844898223877
22.0272998809814 -26.4820003509521 15.4502000808716
-21.6448001861572 2.36370992660522 14.0846996307373
-26.8871002197266 1.24302005767822 65.3398971557617
-18.1352996826172 -25.4400997161865 30.9340991973877
-15.6091003417969 8.37576007843018 18.8579998016357
-37.0668983459473 -3.03306007385254 62.7219009399414
-7.7715802192688 -2.38046002388 49.4574012756348
29.7859992980957 4.82593011856079 35.0125999450684
-17.07200050354 -21.9162006378174 7.65099000930786
9.27414989471436 -32.2304992675781 18.5960006713867
-11.4376001358032 -1.57734000682831 68.7866973876953
24.8003005981445 12.0243997573853 21.0053997039795
24.1758995056152 12.5190000534058 20.7950000762939
-10.9739999771118 -25.0709991455078 26.2546005249023
-10.897500038147 -24.9831008911133 25.7126998901367
-18.798999786377 -19.4901008605957 8.56130027770996
-19.8111991882324 -17.7572002410889 7.8924298286438
-0.991782009601593 12.0263004302979 76.6381988525391
-13.8584003448486 3.18611001968384 75.3071975708008
-16.7521991729736 -24.5480003356934 22.3267993927002
-31.6429996490479 18.6455001831055 75.5154037475586
-31.5506992340088 2.18812990188599 19.2206001281738
-33.7266998291016 -11.5265998840332 66.2988967895508
6.14040994644165 -31.9953994750977 15.059100151062
-8.15170001983643 -13.1274003982544 0.160805001854897
-41.728099822998 -19.3939990997314 50.1869010925293
9.42868995666504 -26.7775993347168 0.284447014331818
31.5065002441406 2.86730003356934 9.17391014099121
-21.7548999786377 -21.8799991607666 0.0201759003102779
16.0727005004883 11.8339996337891 34.8907012939453
-0.93420398235321 -17.6970996856689 47.818000793457
-25.3561992645264 3.16091990470886 62.5898017883301
-25.300500869751 3.43528008460999 62.2482986450195
-11.647500038147 5.37271022796631 11.789400100708
-41.0676002502441 -15.2402000427246 58.8474998474121
-41.1352005004883 -14.8936004638672 59.0898017883301
-27.994800567627 -15.829400062561 66.2093963623047
-16.0872993469238 -14.8916997909546 48.8479995727539
-37.9906005859375 -24.6879997253418 41.9561004638672
-36.4879989624023 -26.5853996276855 56.8790016174316
-22.1093997955322 -0.172805994749069 8.24240016937256
-25.1049995422363 2.66877007484436 58.1257019042969
-37.6425018310547 -25.7120990753174 56.7518997192383
-37.9541015625 -25.9675998687744 56.0340995788574
-17.9698009490967 -17.6142997741699 51.3615989685059
8.05189990997314 -32.2477989196777 15.4846000671387
-12.5676002502441 -1.38682997226715 74.5995025634766
14.1963996887207 4.90784978866577 0.216620996594429
6.64031982421875 12.3534002304077 0.0823936983942986
-16.8796997070313 7.50047016143799 0.508494973182678
-16.8484001159668 7.55456018447876 0.363276988267899
28.9612998962402 -22.5011005401611 27.3598003387451
28.8705005645752 -22.5792999267578 26.7101001739502
29.3043994903564 -21.9979991912842 26.4197006225586
27.1646995544434 -14.269700050354 44.4403991699219
-16.7877998352051 6.17382001876831 2.09499001502991
-28.6781997680664 4.07574987411499 46.8376007080078
-23.8512001037598 -5.05437994003296 66.5440979003906
12.0687999725342 -28.7222003936768 34.3059005737305
3.72968006134033 0.396021991968155 50.7411994934082
-24.4349994659424 -20.6970996856689 58.2821998596191
-25.9636001586914 12.3154001235962 62.4702987670898
-25.7614002227783 12.0892000198364 62.7403984069824
-14.2917003631592 -17.3481998443604 46.081600189209
-12.4980001449585 11.8060998916626 28.9764003753662
-5.62019014358521 -25.7245998382568 31.878999710083
13.5531997680664 17.8031005859375 20.2549991607666
-42.3585014343262 -8.02742958068848 45.6268997192383
-6.66129016876221 11.7395000457764 7.96273994445801
-6.78018999099731 11.4672002792358 8.04650974273682
-23.7693004608154 4.1358699798584 1.22728002071381
26.8603992462158 10.1927003860474 23.6525993347168
-26.2604007720947 31.74049949646 70.1426010131836
-25.9512996673584 31.8113994598389 70.2461013793945
-28.8472003936768 4.08856010437012 52.1493988037109
-16.0438003540039 -14.9753999710083 48.5190010070801
-15.5055999755859 -14.0255002975464 49.0425987243652
21.7751007080078 13.4163999557495 14.8599004745483
-33.0533981323242 4.06999015808105 62.3877983093262
17.7982997894287 -27.8778991699219 32.8574981689453
-10.2645998001099 14.4450998306274 0.0531235001981258
12.9616003036499 2.00037002563477 0.261779993772507
13.3135004043579 2.63850998878479 0.347678989171982
-25.8822002410889 3.85758996009827 50.9678001403809
18.2353992462158 -29.359899520874 27.4899997711182
-38.4303016662598 -26.7782001495361 43.8945999145508
-25.3738994598389 -24.1236991882324 51.3210983276367
-25.7227993011475 -25.013599395752 50.8390007019043
-34.1831016540527 15.1412000656128 71.4535980224609
-37.8000984191895 -1.69085001945496 37.6203002929688
3.51419997215271 17.6560001373291 32.646598815918
-3.56336998939514 6.08892011642456 82.1932983398438
-3.91105008125305 5.95308017730713 82.0096969604492
-5.63159990310669 -28.0844993591309 27.8092002868652
-5.8255500793457 -27.891300201416 27.3402996063232
-25.3274002075195 -12.9167995452881 0.0761414021253586
-34.1341018676758 24.3810005187988 77.0815963745117
-14.6684999465942 -3.74564003944397 67.7241973876953
14.5655002593994 10.5431995391846 37.7537994384766
42.9163017272949 -5.77412986755371 14.9288997650146
26.3978996276855 -18.7819004058838 5.57703018188477
-16.7313003540039 -25.1553001403809 32.7207984924316
16.2828998565674 11.7552995681763 1.79322004318237
-10.6885004043579 -26.4869003295898 1.19751000404358
-11.7391004562378 -24.6453990936279 23.9981002807617
-6.22531986236572 -23.4624004364014 19.8591003417969
-31.0594997406006 0.359986007213593 67.0943984985352
-40.3666000366211 -10.1392002105713 30.2474002838135
-11.4238004684448 2.4907500743866 1.12404000759125
-37.4448013305664 -26.0541000366211 42.5182991027832
-39.4047012329102 -3.68857002258301 33.4388999938965
2.53241991996765 20.30299949646 19.5912990570068
-18.7968006134033 -7.71555995941162 63.8643989562988
-24.7889995574951 -24.8609008789063 24.9151992797852
7.26909017562866 7.01116991043091 1.31304001808167
7.8990797996521 6.79898977279663 1.41123998165131
-3.62426996231079 -24.8048992156982 37.4039993286133
-12.6527996063232 -2.55783009529114 72.4845962524414
-13.0697002410889 -2.76872992515564 72.2850036621094
4.80324983596802 -28.1287994384766 35.1599006652832
-35.7939987182617 2.67336010932922 26.7101001739502
-3.23382997512817 -31.5508003234863 26.9234008789063
-2.82832002639771 -31.5743999481201 27.7516002655029
-14.3382997512817 10.8689002990723 26.4563007354736
13.7447996139526 10.8746995925903 36.4384994506836
-42.3028984069824 -12.8133001327515 44.902099609375
36.1460990905762 -4.76206016540527 19.957799911499
36.0061988830566 -5.14751005172729 20.1382999420166
7.80448007583618 11.8620004653931 36.9877014160156
7.31984996795654 11.8924999237061 37.4620018005371
8.09508991241455 11.7593002319336 37.3348999023438
-13.1084003448486 -24.7108001708984 25.728099822998
-0.898533999919891 3.12930989265442 68.4233016967773
5.57048988342285 -31.1933994293213 12.3351001739502
11.4872999191284 -14.9570999145508 51.8087005615234
18.1051998138428 -15.3461999893188 50.2422981262207
23.8269996643066 10.3819999694824 33.3437995910645
13.9871997833252 17.1014003753662 28.6909999847412
8.76321029663086 -25.207799911499 38.3875999450684
-20.5347995758057 10.0044002532959 23.1287002563477
28.3789005279541 5.23480987548828 37.7084007263184
-20.4575004577637 3.82928991317749 13.9736995697021
-20.154899597168 4.01605987548828 13.5622997283936
-36.4166984558105 1.97381997108459 26.5531005859375
27.2453002929688 -21.3265991210938 35.9418983459473
-10.6507997512817 9.06680965423584 19.921199798584
-40.2331008911133 -10.3573999404907 64.0045013427734
-25.0990009307861 17.3537998199463 69.9390029907227
-30.7831001281738 24.2049999237061 72.5467987060547
39.3627014160156 0.231401994824409 13.7433996200562
3.98341989517212 -27.5540008544922 6.2861499786377
41.6199989318848 -13.8382997512817 14.9096002578735
41.6128997802734 -13.831600189209 14.2170000076294
13.4188995361328 4.90200996398926 0.827785015106201
43.1200981140137 -7.48520994186401 13.9893999099731
-8.76772022247314 2.01216006278992 72.6147994995117
9.27182960510254 -25.5650005340576 36.250301361084
9.15237045288086 -25.5016002655029 36.3194007873535
-21.1534004211426 -13.0795001983643 4.61365985870361
7.40111017227173 -5.92210006713867 1.09811997413635
27.7166996002197 -16.3890991210938 3.16325998306274
5.77785015106201 -28.2481994628906 35.1782989501953
-2.13294005393982 -30.1284008026123 20.1476993560791
11.1971998214722 12.9421997070313 4.00400018692017
9.69486999511719 13.0087003707886 3.88305997848511
-15.538200378418 7.8745698928833 17.5291004180908
-15.4104995727539 8.3351001739502 18.516300201416
-15.1745004653931 8.16876029968262 17.9990997314453
-40.907299041748 -15.6012001037598 58.4244995117188
-38.1842994689941 -26.6641998291016 54.6419982910156
-38.3913993835449 -26.7453994750977 54.111400604248
15.8099002838135 16.5331993103027 22.3745002746582
5.23575019836426 -27.82200050354 35.3251991271973
-26.3498001098633 -15.0296001434326 1.24942994117737
37.3786010742188 1.3882600069046 13.3536996841431
11.2658996582031 -15.1756000518799 1.33279001712799
7.64900016784668 -33.4337997436523 21.7376003265381
7.93367004394531 -33.4146003723145 21.5499992370605
-26.3966007232666 -18.6595001220703 3.67673993110657
-19.8931999206543 -10.8741998672485 4.88724994659424
-19.5944995880127 -10.8865003585815 5.17608022689819
-19.6646003723145 -11.1401996612549 5.08513021469116
-14.0838003158569 -2.17237997055054 51.2126007080078
40.9282989501953 -8.83325958251953 7.97563982009888
14.9277000427246 -30.5617008209229 14.2444000244141
-34.4715003967285 -27.2331008911133 43.1814002990723
-25.5228996276855 33.3577003479004 75.9181976318359
-26.1158008575439 33.1652984619141 76.2270965576172
-18.0296993255615 -23.4608993530273 37.3061981201172
-18.3628997802734 -23.2136993408203 37.7697982788086
11.9419002532959 17.5324001312256 18.1163997650146
-34.4252014160156 1.96641004085541 44.9948997497559
-6.70722007751465 -24.3061008453369 22.1625995635986
5.93266010284424 -27.7952003479004 0.276793986558914
6.3112998008728 -27.6084003448486 0.209483996033669
-30.826000213623 28.6679000854492 77.3459014892578
-29.8430995941162 23.3339004516602 77.0145034790039
-29.4843006134033 24.4067001342773 77.369499206543
-9.3956298828125 13.4644002914429 22.067699432373
7.18413019180298 -27.4123001098633 0.107384003698826
7.03572988510132 -27.5046005249023 0.175605997443199
22.38330078125 13.5026998519897 18.1679992675781
-38.4928016662598 -13.9224996566772 41.7430992126465
42.4752998352051 -10.9805002212524 12.2915000915527
17.6471004486084 12.5509996414185 4.76470994949341
5.33697986602783 -25.3745002746582 36.3060989379883
5.76104021072388 -25.551399230957 36.0918998718262
-29.6558990478516 5.08076000213623 59.0657005310059
-16.7427005767822 -15.9545001983643 49.5829010009766
-26.2481994628906 -20.5286998748779 4.12052011489868
-38.4394989013672 -15.2416000366211 28.886100769043
5.01234006881714 -30.7248992919922 11.4343996047974
24.69580078125 -25.7413005828857 21.8437004089355
24.9480991363525 8.31962966918945 7.23889017105103
24.6966991424561 8.98915958404541 7.43627977371216
-31.2413997650146 -13.7996997833252 17.3530006408691
4.3443398475647 14.1450004577637 4.34580993652344
3.85725998878479 14.0269002914429 4.27688980102539
-31.4069004058838 3.41770005226135 53.7504997253418
-31.7677001953125 3.27971005439758 54.1346015930176
-33.6603012084961 20.7824001312256 75.5119018554688
7.41074991226196 -27.1940994262695 0.0688057020306587
-23.6615009307861 -20.5729999542236 62.443000793457
-35.6931991577148 3.12150001525879 28.2607002258301
-35.50830078125 3.25063991546631 27.8078002929688
-6.77753019332886 18.2999000549316 21.7015991210938
-6.60940980911255 18.3621997833252 21.3435001373291
8.92724990844727 -26.8099994659424 0.259620994329453
-28.6172008514404 29.0447006225586 79.9654006958008
-8.69470024108887 5.60067987442017 11.0214004516602
26.6317005157471 -24.6898002624512 29.6194000244141
-11.0808000564575 -23.2000999450684 13.1312999725342
18.0384998321533 -29.6634006500244 26.5886001586914
-11.6183996200562 -25.2621002197266 0.53491199016571
-5.35351991653442 -22.9461002349854 0.68306702375412
-20.0792007446289 -16.8504009246826 13.7880001068115
-41.1904983520508 -25.4452991485596 46.9007987976074
-36.9341011047363 -16.4500007629395 41.2876014709473
-1.1659699678421 10.333399772644 83.506103515625
-27.0417003631592 29.8854999542236 79.3517990112305
-1.96840000152588 -26.395299911499 8.09733963012695
12.1624002456665 -15.9783000946045 1.39464998245239
11.3447999954224 -32.209400177002 15.0724000930786
-11.3138999938965 6.37108993530273 6.99406003952026
8.21442031860352 18.7695999145508 19.5687007904053
1.67012000083923 -22.6191997528076 1.78286004066467
-20.4102993011475 -11.0712003707886 4.404709815979
-7.53828001022339 14.932900428772 18.4437999725342
-7.34259986877441 14.9179000854492 17.9053001403809
-10.049599647522 9.81698989868164 20.1597995758057
-9.46883010864258 13.6218996047974 23.1217002868652
-9.62067985534668 12.9399003982544 23.6597995758057
-6.45483016967773 -3.62713003158569 1.04548001289368
-6.38110017776489 -2.96048998832703 1.09184002876282
-10.4109001159668 -22.3514995574951 10.8825998306274
21.7336006164551 -26.1641998291016 34.7476005554199
9.56280040740967 -31.5203990936279 31.6124992370605
-25.0095996856689 -20.5636005401611 56.9631004333496
19.5478000640869 -27.4846000671387 30.7819004058838
19.2905006408691 -27.5149002075195 31.2254009246826
13.3046998977661 12.5080995559692 3.38936996459961
-13.3550996780396 3.67614006996155 65.2950973510742
25.5842990875244 9.64560031890869 32.3672981262207
-18.4365997314453 1.19483995437622 50.9687004089355
-4.62667989730835 5.03110980987549 81.4050979614258
-18.9211006164551 -8.8339900970459 8.30140972137451
-40.8908996582031 -16.1760005950928 44.4348983764648
14.0390996932983 -27.3311996459961 35.369701385498
21.9458999633789 5.11020994186401 44.4719009399414
-2.644779920578 -31.5048007965088 28.1826000213623
-2.95743989944458 -31.3087997436523 28.1818008422852
42.3310012817383 -12.1256999969482 13.3045997619629
23.7548999786377 -21.5293998718262 4.2164101600647
-20.4370002746582 2.20591998100281 50.4758987426758
-19.835599899292 1.86275005340576 50.8070983886719
-3.7462899684906 -30.6791000366211 3.63409996032715
-26.5690002441406 -18.1700992584229 3.02294993400574
-22.2373008728027 -7.21724987030029 66.4115982055664
-22.6033000946045 -7.30823993682861 66.3883972167969
3.34208989143372 -0.954450011253357 1.35084998607635
-27.5203990936279 32.3979988098145 79.2759017944336
34.4165000915527 -14.4670000076294 18.1039009094238
34.6897010803223 -14.1731996536255 18.3528003692627
-0.446117013692856 15.3262996673584 6.22890996932983
-0.982536017894745 15.457799911499 6.68281984329224
-20.2912006378174 11.3296003341675 31.6952991485596
7.53443002700806 -23.1096992492676 44.5107002258301
-18.4526996612549 -26.3875999450684 0.108528003096581
36.8620986938477 0.0710916966199875 15.8151998519897
-15.1983995437622 -24.3700008392334 25.0809993743896
-15.2402000427246 -24.4671993255615 25.410400390625
-34.3869018554688 3.92902994155884 35.8932991027832
-25.1208992004395 28.4540996551514 71.6392974853516
-27.2073001861572 25.8848991394043 65.5857009887695
-1.71121001243591 -28.0657005310059 14.9742002487183
-20.5118007659912 3.62451004981995 13.4125995635986
-3.90036988258362 -28.6562995910645 21.2700996398926
-3.47054004669189 -28.7971000671387 20.5631999969482
41.9658012390137 -13.058500289917 13.213399887085
15.2242002487183 -30.1735992431641 31.1200008392334
-12.7103996276855 3.50723004341125 76.2422027587891
-13.0114002227783 3.03272008895874 76.1147994995117
-37.288501739502 -2.25030994415283 58.3418006896973
-36.9617004394531 -2.03472995758057 58.5192985534668
-7.20092010498047 9.12327003479004 0.739859998226166
-7.19359016418457 9.34949970245361 0.463860005140305
-22.4395999908447 7.08871984481812 18.442699432373
-23.0891990661621 6.54865980148315 18.0608005523682
2.35417008399963 20.2434997558594 18.9913005828857
1.84701001644135 20.1483993530273 18.2359008789063
0.0785482972860336 13.2592000961304 34.2849006652832
-1.26827001571655 -26.9552993774414 33.7919998168945
-1.29707002639771 -28.3143997192383 33.1558990478516
-32.4138984680176 28.4692001342773 78.6753005981445
-1.77197003364563 12.6712999343872 34.7155990600586
-39.7869987487793 -13.5783996582031 31.9220008850098
-39.6977996826172 -13.7649002075195 31.3516006469727
-17.5545997619629 -5.04165983200073 60.2239990234375
-17.6592998504639 -4.85280990600586 59.9477996826172
1.09414005279541 20.5128002166748 22.8654003143311
6.18023014068604 -30.8297996520996 11.5661001205444
-40.1967010498047 -10.6084995269775 33.0371017456055
-39.5038986206055 -4.03778982162476 33.3484001159668
-33.3811988830566 11.5659999847412 67.5861968994141
0.540444016456604 12.5768003463745 83.1323013305664
-19.4253997802734 -16.6648998260498 11.0937004089355
-15.4203996658325 -25.1035995483398 28.111400604248
-14.6169996261597 -7.33418989181519 51.7542991638184
-15.0437002182007 -24.9192008972168 27.6557006835938
-10.6579999923706 14.3038997650146 4.28058004379272
15.5663995742798 7.44491004943848 45.6180992126465
-35.8703994750977 -10.3498001098633 21.2339992523193
3.32925009727478 -31.2178001403809 13.3570003509521
-41.8305015563965 -5.47798013687134 48.4011001586914
-42.0521011352539 -5.97840976715088 48.3991012573242
-39.309700012207 -11.8438997268677 37.1262016296387
27.8075008392334 0.773029983043671 2.52875995635986
21.2539005279541 -27.2987995147705 13.1206998825073
30.9540996551514 2.58454990386963 13.1126003265381
-31.4421997070313 -9.08743953704834 66.5842971801758
4.98399019241333 13.285400390625 0.8802490234375
-25.1965999603271 -11.0487003326416 0.788035988807678
22.7479000091553 -26.5456008911133 32.4439010620117
-9.74437046051025 -5.88716983795166 50.55419921875
-24.824499130249 -11.6898002624512 0.287220001220703
-24.7798004150391 -11.7446002960205 0.244163006544113
-16.4787006378174 8.61410045623779 0.450390011072159
-16.4018001556396 8.53283977508545 0.410300999879837
-34.9367980957031 -20.2126998901367 29.8948001861572
-34.7792015075684 -20.2497997283936 31.2642002105713
-13.6630001068115 10.9186000823975 36.339298248291
-21.8980007171631 -4.80681991577148 10.7562999725342
-0.33364200592041 11.5469999313354 38.8408012390137
40.7812995910645 -15.0117998123169 13.9509000778198
5.77705001831055 -29.8822002410889 34.1174011230469
5.08273983001709 -29.5351009368896 34.3442001342773
-26.6103000640869 3.22954988479614 0.463611990213394
-3.3764500617981 -11.1181001663208 49.7006988525391
-3.51237988471985 -11.7769002914429 49.431999206543
-29.4281005859375 -22.2656002044678 63.2042999267578
-30.8162002563477 -22.8929004669189 62.7162017822266
2.21812009811401 7.84280014038086 1.26038002967834
-37.527099609375 -17.0023994445801 63.9169998168945
-38.396800994873 -15.6752996444702 63.9589996337891
-11.3961000442505 10.0876998901367 6.06895017623901
-32.75 -29.7852993011475 45.1108016967773
-7.90005016326904 -24.2434005737305 26.076000213623
-8.10369968414307 -24.0160999298096 25.5960006713867
-7.88784980773926 -23.9699001312256 24.6466999053955
31.214599609375 2.77829003334045 7.63427019119263
14.7056999206543 -22.4001998901367 43.4541015625
13.7678003311157 -22.8736000061035 43.1332015991211
-26.5344009399414 32.9281997680664 77.8877029418945
-16.396900177002 -25.4881992340088 26.6982002258301
-33.7504997253418 -17.225700378418 21.5217990875244
-33.4608001708984 -17.0021991729736 20.886999130249
-28.3957996368408 -29.8437995910645 45.9920997619629
-35.9296989440918 -0.298927992582321 40.7797012329102
-13.2414999008179 2.66550993919373 76.0073013305664
-36.4981002807617 -2.31617999076843 61.8954010009766
-29.4353008270264 -0.88951700925827 2.3149299621582
28.8131999969482 -18.6844997406006 8.86131954193115
11.3936004638672 -29.9514007568359 7.97824001312256
19.7535991668701 14.3568000793457 9.83205986022949
-16.1951007843018 -4.01689004898071 70.5078964233398
-3.81451988220215 -10.8979997634888 49.6105995178223
36.3578987121582 -8.1046199798584 20.6594009399414
31.9871997833252 1.35581994056702 14.137900352478
10.7159996032715 -31.0158004760742 12.1000003814697
35.5922012329102 -8.52268981933594 20.8883991241455
-1.47543001174927 -29.0825004577637 32.6450004577637
-29.2196006774902 3.66716003417969 68.7155990600586
-28.7994003295898 3.59913992881775 68.4310989379883
25.8236999511719 10.0537004470825 14.4219999313354
-25.1000003814697 -21.2698993682861 5.29159021377563
10.5076999664307 -30.6499004364014 10.5250997543335
10.516900062561 -30.5988998413086 10.1982002258301
12.1002998352051 -6.3757700920105 0.0149154998362064
-28.7712001800537 -8.39186000823975 13.7975997924805
6.97797012329102 -22.8579998016357 44.8597984313965
28.1217002868652 -22.3917999267578 32.8656997680664
-33.1754989624023 24.9587001800537 78.2599029541016
-34.228199005127 24.6441993713379 76.2699966430664
-26.1798000335693 -10.2189998626709 0.619076013565063
36.4738998413086 -8.45156955718994 3.94061994552612
-27.6301002502441 -29.3962001800537 47.244701385498
-28.1956005096436 -29.7112998962402 48.0082015991211
-15.7260999679565 10.9406003952026 26.5062007904053
-17.0296993255615 11.0292997360229 26.3698997497559
8.58761024475098 12.7138004302979 0.27895399928093
-23.488899230957 -6.01066017150879 66.5447006225586
27.5207004547119 -6.38937997817993 44.8641014099121
-17.6450996398926 4.1666898727417 7.37214994430542
-17.8789005279541 4.04043006896973 8.22142028808594
-38.5173988342285 -1.40534996986389 33.5509986877441
-22.1466007232666 -18.0321006774902 63.9879989624023
-18.9220008850098 -10.8105001449585 6.10009002685547
-9.01212978363037 6.01273012161255 7.95537996292114
-4.39732980728149 6.58468008041382 45.0834999084473
-5.11134004592896 6.47576999664307 45.2179985046387
-3.34717011451721 -31.5538005828857 25.3131999969482
-35.910701751709 -11.5054998397827 21.6881999969482
-30.5851001739502 26.6338005065918 79.3309020996094
-8.57291984558105 15.9813003540039 0.986599028110504
-8.33368015289307 15.9974002838135 0.852177023887634
25.5438995361328 7.24336004257202 7.54890012741089
-32.9250984191895 -3.41072988510132 65.7696990966797
-32.8594017028809 13.521900177002 72.8183975219727
-11.3754997253418 5.60741996765137 12.7398996353149
-39.163200378418 -5.20440006256104 57.0773010253906
-15.28600025177 -24.925199508667 26.8770999908447
-24.7765998840332 -24.3055992126465 36.0028991699219
29.9053993225098 -18.3904991149902 9.90585041046143
-24.9085998535156 9.36997985839844 36.1932983398438
-20.7339992523193 -14.5953998565674 5.97537994384766
5.59444999694824 -7.20529985427856 1.26162004470825
1.02130997180939 18.9937000274658 13.0453996658325
-0.157706007361412 -25.2618007659912 35.5083999633789
31.6079006195068 2.64597988128662 33.4225997924805
-33.7582015991211 -24.3400001525879 40.7434997558594
-33.4679985046387 -24.1054000854492 40.6557006835938
-7.88570022583008 -23.7212009429932 23.5184001922607
19.0256004333496 -29.4018001556396 20.1728992462158
18.547700881958 -29.6359996795654 20.3166999816895
-20.0587005615234 -13.2509002685547 60.0271987915039
-23.2945003509521 2.53157997131348 55.2671012878418
-10.7760000228882 -19.0048007965088 43.9674987792969
-10.5357999801636 -18.7350006103516 44.3829002380371
-36.3967018127441 -0.142170995473862 24.3693008422852
-35.2910995483398 -28.4528007507324 55.4250984191895
-30.4190998077393 4.06022977828979 51.3720016479492
-12.1607999801636 6.13709020614624 14.1975002288818
-2.8929500579834 2.40121006965637 48.2436981201172
-34.1655006408691 19.6520004272461 74.3986968994141
-34.2952003479004 20.1037998199463 74.4372024536133
-21.1826992034912 -6.13618993759155 10.5275001525879
-25.0909004211426 -24.5846996307373 50.1740989685059
-33.8106002807617 10.9370002746582 69.6107025146484
-33.6118011474609 9.49553966522217 69.2884979248047
7.88851022720337 7.80200004577637 0.351505011320114
-35.3549995422363 -20.7670001983643 40.5797996520996
27.3008003234863 -1.85739004611969 44.5018005371094
-42.0744018554688 -20.5536003112793 48.7872009277344
-22.1854991912842 -3.17994999885559 10.395299911499
40.2626991271973 -5.63357019424438 19.9577007293701
-25.1802005767822 -15.0094003677368 66.1572036743164
31.2821006774902 0.152655005455017 3.29874992370605
-6.72130012512207 -2.86574006080627 49.3353004455566
39.8414993286133 -14.7166996002197 17.6187000274658
25.3145999908447 10.8224000930786 17.7437992095947
24.7661991119385 11.1014995574951 17.0720996856689
-36.7865982055664 -17.7245998382568 28.0657997131348
-4.33197021484375 14.0404996871948 7.09138011932373
-17.7478008270264 -24.3374996185303 35.9720993041992
29.1236991882324 -22.264799118042 25.1623992919922
-25.8938999176025 3.50290989875793 0.629742026329041
39.4807014465332 -13.4147996902466 19.1336994171143
3.75636005401611 11.2132997512817 75.3707962036133
3.70282006263733 10.711199760437 74.8286972045898
-38.0092010498047 -27.868200302124 52.8923988342285
24.934700012207 9.93813037872314 9.49450016021729
21.8099002838135 12.4590997695923 29.8544998168945
2.28056001663208 6.93067979812622 71.831298828125
-42.6048011779785 -9.28361034393311 50.1633987426758
-12.3822002410889 -19.6821002960205 43.5281982421875
16.4860000610352 -30.2192001342773 30.2154006958008
-28.0545997619629 18.8423004150391 62.7605018615723
-1.14108002185822 -30.1189002990723 17.6294994354248
25.1688003540039 0.0766305029392242 45.625
19.6417999267578 -19.6996002197266 46.2705993652344
0.651315987110138 -24.9783992767334 36.9002990722656
0.097993403673172 -24.9752998352051 37.1088981628418
-8.51762008666992 15.2880001068115 21.9216995239258
-21.5011005401611 -26.8267993927002 2.29112005233765
-7.79905986785889 -18.8192005157471 44.5116004943848
-7.29355001449585 -25.7712001800537 32.6370010375977
-25.0657997131348 11.8004999160767 68.3538970947266
-6.5983099937439 -23.4134006500244 20.4167003631592
-25.0450000762939 14.0511999130249 69.0572967529297
-31.4507999420166 25.1187000274658 78.6050033569336
-24.6858005523682 -24.4078006744385 49.5275001525879
14.9588003158569 -24.7593994140625 38.6660003662109
